24.53 -24.3 9.479
24.44 -24.28 9.513
24.33 -24.25 9.547
24.22 -24.22 9.579
24.11 -24.18 9.61
23.99 -24.14 9.639
23.87 -24.1 9.667
23.75 -24.06 9.693
23.64 -24.03 9.717
23.53 -24 9.737
23.43 -23.98 9.752
23.33 -23.97 9.761
23.22 -23.97 9.762
23.12 -23.97 9.755
23.01 -23.98 9.739
22.91 -23.99 9.713
22.8 -24 9.677
22.69 -24.02 9.633
22.59 -24.03 9.581
22.5 -24.03 9.521
22.41 -24.04 9.454
22.32 -24.04 9.38
22.24 -24.04 9.296
22.16 -24.04 9.202
22.08 -24.04 9.097
22.01 -24.03 8.984
21.93 -24.02 8.866
21.86 -24 8.747
21.8 -23.98 8.632
21.75 -23.96 8.521
21.7 -23.93 8.415
21.66 -23.89 8.314
21.63 -23.85 8.217
21.6 -23.81 8.126
21.56 -23.76 8.043
21.53 -23.72 7.969
21.49 -23.68 7.906
21.44 -23.65 7.854
21.39 -23.63 7.812
21.33 -23.61 7.778
21.26 -23.6 7.752
21.18 -23.59 7.731
21.09 -23.57 7.715
20.99 -23.54 7.703
20.88 -23.51 7.694
20.76 -23.46 7.689
20.64 -23.41 7.688
20.52 -23.35 7.692
20.4 -23.28 7.701
20.28 -23.2 7.715
20.16 -23.13 7.735
20.05 -23.05 7.759
19.94 -22.96 7.789
19.83 -22.88 7.823
19.72 -22.79 7.862
19.62 -22.7 7.905
19.53 -22.62 7.95
19.44 -22.53 7.994
19.35 -22.44 8.036
19.27 -22.35 8.074
19.21 -22.25 8.109
19.14 -22.16 8.14
19.09 -22.06 8.169
19.04 -21.95 8.197
18.99 -21.84 8.226
18.94 -21.72 8.256
18.89 -21.59 8.288
18.84 -21.46 8.322
18.8 -21.32 8.359
18.76 -21.18 8.4
18.72 -21.03 8.444
18.69 -20.89 8.493
18.66 -20.74 8.544
18.64 -20.6 8.597
18.62 -20.46 8.65
18.61 -20.32 8.702
18.6 -20.18 8.752
18.59 -20.04 8.801
18.58 -19.9 8.849
18.58 -19.75 8.896
18.57 -19.6 8.943
18.58 -19.43 8.988
18.58 -19.26 9.031
18.59 -19.09 9.072
18.6 -18.92 9.111
18.61 -18.75 9.149
18.63 -18.59 9.186
18.66 -18.43 9.224
18.69 -18.28 9.263
18.72 -18.12 9.305
18.77 -17.96 9.35
18.82 -17.8 9.398
18.87 -17.65 9.449
18.94 -17.5 9.502
19 -17.36 9.555
19.07 -17.23 9.608
19.15 -17.12 9.661
19.22 -17.01 9.713
19.29 -16.9 9.764
19.36 -16.81 9.815
19.44 -16.71 9.866
19.52 -16.62 9.92
19.61 -16.53 9.977
19.7 -16.43 10.04
19.8 -16.34 10.1
19.91 -16.24 10.17
20.01 -16.13 10.24
20.1 -16.03 10.31
20.18 -15.93 10.37
20.24 -15.82 10.43
20.27 -15.71 10.49
20.26 -15.6 10.53
20.22 -15.49 10.57
20.16 -15.38 10.59
20.06 -15.26 10.61
19.95 -15.14 10.63
19.81 -15.02 10.64
19.67 -14.88 10.65
19.53 -14.75 10.67
19.38 -14.61 10.68
19.25 -14.46 10.7
19.13 -14.32 10.71
19.02 -14.18 10.73
18.93 -14.04 10.76
18.84 -13.9 10.78
18.77 -13.75 10.81
18.7 -13.61 10.83
18.63 -13.47 10.86
18.57 -13.33 10.88
18.52 -13.2 10.9
18.47 -13.06 10.93
18.43 -12.93 10.95
18.39 -12.78 10.97
18.35 -12.63 11
18.32 -12.47 11.02
18.29 -12.3 11.05
18.26 -12.14 11.08
18.25 -11.97 11.11
18.24 -11.81 11.14
18.24 -11.65 11.17
18.24 -11.48 11.2
18.25 -11.32 11.23
18.27 -11.16 11.26
18.28 -10.99 11.28
18.3 -10.83 11.31
18.32 -10.66 11.33
18.34 -10.49 11.36
18.37 -10.32 11.39
18.39 -10.14 11.42
18.4 -9.973 11.44
18.41 -9.804 11.46
18.39 -9.637 11.47
18.35 -9.476 11.47
18.29 -9.324 11.45
18.19 -9.183 11.43
18.08 -9.054 11.38
17.96 -8.935 11.34
17.84 -8.825 11.28
17.71 -8.719 11.23
17.59 -8.616 11.18
17.48 -8.514 11.13
17.37 -8.409 11.08
17.26 -8.302 11.04
17.15 -8.191 11
17.04 -8.075 10.96
16.93 -7.952 10.92
16.82 -7.823 10.88
16.7 -7.685 10.85
16.59 -7.538 10.82
16.48 -7.381 10.8
16.36 -7.215 10.77
16.25 -7.043 10.75
16.14 -6.865 10.73
16.04 -6.685 10.72
15.94 -6.502 10.71
15.85 -6.317 10.7
15.77 -6.129 10.7
15.68 -5.94 10.7
15.6 -5.748 10.7
15.53 -5.552 10.7
15.45 -5.353 10.7
15.39 -5.149 10.7
15.32 -4.941 10.7
15.27 -4.729 10.7
15.22 -4.515 10.7
15.18 -4.294 10.7
15.14 -4.067 10.7
15.11 -3.83 10.7
15.08 -3.588 10.7
15.05 -3.346 10.7
15.03 -3.111 10.71
15.02 -2.887 10.73
15.01 -2.678 10.74
15.01 -2.48 10.77
15.02 -2.293 10.79
15.03 -2.115 10.82
15.05 -1.944 10.86
15.07 -1.779 10.89
15.09 -1.619 10.94
15.12 -1.462 10.98
15.16 -1.306 11.04
15.2 -1.149 11.1
15.25 -0.9937 11.16
15.29 -0.8419 11.23
15.34 -0.6972 11.29
15.39 -0.5608 11.35
15.44 -0.4314 11.41
15.5 -0.3052 11.47
15.56 -0.1783 11.53
15.63 -0.04826 11.6
15.71 0.0857 11.67
15.8 0.2228 11.73
15.88 0.3613 11.8
15.95 0.4991 11.86
16.01 0.6335 11.91
16.05 0.7615 11.94
16.05 0.8802 11.95
16.02 0.9876 11.95
15.97 1.084 11.93
15.9 1.17 11.9
15.82 1.25 11.86
15.73 1.327 11.82
15.66 1.406 11.78
15.58 1.488 11.73
15.51 1.575 11.68
15.44 1.669 11.62
15.36 1.771 11.57
15.29 1.881 11.51
15.23 2 11.45
15.16 2.129 11.4
15.09 2.27 11.34
15.03 2.423 11.28
14.96 2.589 11.23
14.9 2.765 11.17
14.84 2.949 11.12
14.79 3.135 11.08
14.75 3.323 11.04
14.71 3.512 11.01
14.68 3.701 10.99
14.66 3.888 10.97
14.64 4.073 10.97
14.63 4.254 10.97
14.62 4.429 10.98
14.61 4.599 10.99
14.6 4.761 11
14.6 4.916 11.02
14.6 5.064 11.04
14.61 5.209 11.06
14.62 5.352 11.09
14.63 5.498 11.12
14.65 5.646 11.15
14.67 5.793 11.18
14.69 5.937 11.22
14.71 6.072 11.25
14.73 6.197 11.28
14.75 6.311 11.31
14.77 6.417 11.34
14.79 6.52 11.38
14.82 6.626 11.41
14.85 6.739 11.45
14.88 6.857 11.49
14.89 6.979 11.52
14.89 7.096 11.55
14.87 7.204 11.55
14.82 7.299 11.53
14.74 7.381 11.5
14.66 7.452 11.45
14.56 7.513 11.39
14.46 7.568 11.32
14.36 7.619 11.25
14.26 7.666 11.18
14.16 7.712 11.11
14.07 7.756 11.04
13.98 7.802 10.96
13.9 7.853 10.89
13.81 7.912 10.81
13.72 7.982 10.72
13.62 8.065 10.64
13.51 8.163 10.55
13.41 8.276 10.45
13.3 8.406 10.37
13.19 8.553 10.29
13.08 8.717 10.21
12.98 8.895 10.15
12.88 9.086 10.1
12.78 9.288 10.05
12.68 9.5 10.03
12.59 9.722 10.01
12.51 9.952 10.01
12.43 10.18 10.01
12.35 10.41 10.03
12.29 10.62 10.05
12.23 10.8 10.07
12.19 10.97 10.09
12.15 11.11 10.12
12.12 11.24 10.15
12.1 11.36 10.18
12.09 11.48 10.21
12.08 11.6 10.25
12.07 11.73 10.29
12.07 11.86 10.34
12.08 12 10.4
12.09 12.13 10.46
12.1 12.26 10.52
12.12 12.39 10.58
12.15 12.51 10.64
12.18 12.62 10.7
12.21 12.74 10.76
12.25 12.85 10.82
12.3 12.96 10.88
12.35 13.07 10.94
12.4 13.18 10.99
12.44 13.28 11.04
12.48 13.37 11.07
12.49 13.44 11.09
12.49 13.5 11.09
12.47 13.56 11.06
12.42 13.61 11.02
12.34 13.66 10.96
12.25 13.71 10.88
12.14 13.76 10.79
12.03 13.81 10.68
11.91 13.87 10.57
11.79 13.93 10.46
11.68 13.99 10.36
11.57 14.06 10.26
11.46 14.12 10.17
11.37 14.2 10.08
11.27 14.28 10.01
11.17 14.38 9.936
11.08 14.48 9.873
10.98 14.59 9.816
10.89 14.71 9.766
10.79 14.84 9.722
10.7 14.98 9.686
10.61 15.12 9.656
10.52 15.27 9.635
10.43 15.43 9.621
10.35 15.61 9.617
10.27 15.8 9.622
10.2 16 9.637
10.14 16.21 9.662
10.08 16.42 9.696
10.04 16.64 9.739
10.01 16.85 9.788
9.996 17.07 9.843
9.987 17.28 9.903
9.986 17.48 9.964
9.991 17.67 10.03
10 17.84 10.09
10.02 18.01 10.15
10.04 18.16 10.21
10.06 18.31 10.26
10.08 18.45 10.32
10.11 18.58 10.37
10.13 18.7 10.41
10.15 18.82 10.44
10.15 18.92 10.46
10.13 19 10.46
10.1 19.07 10.44
10.04 19.12 10.41
9.963 19.16 10.35
9.865 19.18 10.29
9.752 19.2 10.22
9.632 19.23 10.14
9.507 19.25 10.06
9.381 19.29 9.99
9.254 19.34 9.922
9.127 19.4 9.86
9 19.46 9.806
8.874 19.54 9.759
8.747 19.62 9.72
8.622 19.71 9.688
8.498 19.8 9.662
8.375 19.9 9.644
8.253 20 9.632
8.13 20.11 9.626
8.006 20.23 9.628
7.882 20.36 9.636
7.758 20.49 9.651
7.636 20.63 9.673
7.517 20.78 9.703
7.401 20.94 9.742
7.29 21.11 9.791
7.186 21.3 9.851
7.089 21.49 9.921
7.005 21.7 9.999
6.933 21.9 10.08
6.876 22.09 10.16
6.829 22.26 10.23
6.788 22.39 10.29
6.747 22.48 10.32
6.698 22.52 10.33
6.638 22.52 10.3
6.565 22.49 10.26
6.48 22.43 10.2
6.387 22.35 10.12
6.291 22.26 10.05
6.195 22.18 9.97
6.099 22.1 9.898
6.004 22.03 9.831
5.906 21.96 9.767
5.802 21.9 9.706
5.69 21.84 9.646
5.569 21.77 9.587
5.439 21.71 9.529
5.303 21.66 9.475
5.162 21.6 9.425
5.019 21.56 9.381
4.874 21.52 9.345
4.728 21.49 9.315
4.582 21.47 9.292
4.437 21.45 9.275
4.295 21.44 9.266
4.155 21.44 9.262
4.019 21.44 9.265
3.884 21.45 9.273
3.748 21.47 9.288
3.61 21.49 9.309
3.468 21.51 9.336
3.321 21.54 9.369
3.17 21.57 9.406
3.017 21.61 9.45
2.86 21.65 9.499
2.7 21.69 9.555
2.537 21.74 9.618
2.369 21.8 9.688
2.196 21.87 9.765
2.019 21.94 9.849
1.84 22.02 9.939
1.658 22.1 10.03
1.477 22.19 10.12
1.3 22.29 10.21
1.13 22.38 10.3
0.9699 22.48 10.37
0.822 22.57 10.44
0.6871 22.67 10.5
0.5655 22.77 10.55
0.4567 22.87 10.59
0.3593 22.97 10.63
0.2708 23.08 10.65
0.1881 23.19 10.67
0.1077 23.32 10.69
0.02719 23.45 10.7
-0.05468 23.59 10.7
-0.1378 23.73 10.71
-0.2214 23.87 10.71
-0.3049 24 10.71
-0.3883 24.13 10.72
-0.472 24.26 10.72
-0.5572 24.38 10.73
-0.6449 24.51 10.74
-0.7358 24.63 10.74
-0.8308 24.76 10.74
-0.9299 24.88 10.74
-1.033 24.99 10.73
-1.14 25.07 10.71
-1.251 25.13 10.68
-1.367 25.14 10.64
-1.488 25.12 10.59
-1.615 25.07 10.53
-1.748 24.98 10.47
-1.887 24.87 10.39
-2.033 24.75 10.32
-2.185 24.61 10.24
-2.343 24.47 10.15
-2.505 24.32 10.08
-2.667 24.18 10
-2.828 24.04 9.933
-2.986 23.92 9.874
-3.141 23.82 9.825
-3.295 23.73 9.784
-3.449 23.65 9.751
-3.602 23.59 9.726
-3.754 23.53 9.71
-3.905 23.48 9.701
-4.057 23.44 9.7
-4.21 23.4 9.708
-4.369 23.37 9.725
-4.535 23.35 9.751
-4.709 23.34 9.787
-4.893 23.33 9.832
-5.085 23.33 9.886
-5.279 23.33 9.948
-5.472 23.35 10.01
-5.657 23.36 10.08
-5.83 23.37 10.15
-5.986 23.37 10.21
-6.122 23.36 10.26
-6.236 23.33 10.3
-6.331 23.27 10.32
-6.41 23.19 10.33
-6.476 23.08 10.33
-6.535 22.95 10.32
-6.59 22.81 10.3
-6.642 22.66 10.27
-6.694 22.52 10.25
-6.744 22.39 10.22
-6.795 22.26 10.19
-6.849 22.14 10.17
-6.906 22.03 10.14
-6.969 21.92 10.12
-7.04 21.8 10.09
-7.118 21.69 10.07
-7.203 21.57 10.05
-7.296 21.45 10.03
-7.394 21.34 10.02
-7.497 21.22 10.01
-7.607 21.11 10
-7.724 21 10.01
-7.851 20.89 10.02
-7.991 20.78 10.03
-8.145 20.67 10.06
-8.314 20.57 10.1
-8.498 20.46 10.15
-8.692 20.37 10.21
-8.892 20.28 10.28
-9.088 20.21 10.36
-9.275 20.14 10.43
-9.444 20.08 10.51
-9.592 20.01 10.57
-9.716 19.94 10.62
-9.816 19.86 10.66
-9.891 19.75 10.68
-9.943 19.62 10.68
-9.975 19.47 10.66
-9.992 19.29 10.62
-10 19.08 10.55
-10 18.87 10.48
-10.01 18.64 10.39
-10.02 18.41 10.3
-10.05 18.19 10.21
-10.07 17.98 10.13
-10.11 17.78 10.05
-10.15 17.6 9.976
-10.2 17.44 9.913
-10.25 17.28 9.858
-10.3 17.14 9.81
-10.35 17.02 9.77
-10.41 16.89 9.736
-10.47 16.78 9.709
-10.53 16.67 9.688
-10.59 16.56 9.673
-10.65 16.45 9.663
-10.71 16.34 9.658
-10.78 16.22 9.657
-10.84 16.1 9.661
-10.91 15.99 9.669
-10.98 15.87 9.683
-11.05 15.76 9.703
-11.12 15.65 9.73
-11.2 15.54 9.765
-11.29 15.42 9.808
-11.39 15.31 9.859
-11.49 15.19 9.919
-11.6 15.08 9.986
-11.71 14.96 10.06
-11.83 14.86 10.14
-11.95 14.75 10.22
-12.06 14.66 10.31
-12.16 14.57 10.38
-12.25 14.47 10.44
-12.32 14.38 10.49
-12.37 14.27 10.52
-12.4 14.15 10.52
-12.41 14.02 10.5
-12.39 13.88 10.45
-12.36 13.73 10.39
-12.31 13.57 10.31
-12.26 13.42 10.23
-12.21 13.27 10.14
-12.17 13.13 10.06
-12.13 13 9.98
-12.1 12.87 9.909
-12.08 12.74 9.842
-12.07 12.61 9.776
-12.06 12.47 9.711
-12.07 12.32 9.646
-12.08 12.16 9.584
-12.1 11.99 9.524
-12.13 11.81 9.469
-12.17 11.63 9.42
-12.22 11.45 9.376
-12.28 11.26 9.339
-12.35 11.06 9.309
-12.43 10.86 9.287
-12.53 10.65 9.273
-12.64 10.44 9.266
-12.75 10.23 9.268
-12.87 10.03 9.277
-12.99 9.839 9.294
-13.11 9.663 9.319
-13.24 9.501 9.353
-13.36 9.352 9.396
-13.49 9.214 9.449
-13.61 9.087 9.511
-13.74 8.97 9.581
-13.87 8.861 9.658
-14.01 8.758 9.742
-14.14 8.658 9.83
-14.27 8.561 9.92
-14.39 8.465 10.01
-14.52 8.369 10.11
-14.64 8.272 10.2
-14.76 8.174 10.3
-14.88 8.077 10.4
-14.99 7.983 10.49
-15.08 7.894 10.57
-15.16 7.811 10.64
-15.21 7.73 10.68
-15.25 7.648 10.7
-15.26 7.557 10.7
-15.26 7.45 10.68
-15.24 7.327 10.65
-15.22 7.19 10.6
-15.19 7.047 10.54
-15.16 6.905 10.49
-15.14 6.772 10.44
-15.12 6.646 10.39
-15.11 6.523 10.35
-15.1 6.396 10.3
-15.09 6.255 10.26
-15.09 6.1 10.21
-15.09 5.932 10.16
-15.1 5.755 10.11
-15.11 5.575 10.06
-15.12 5.394 10.01
-15.15 5.217 9.97
-15.18 5.044 9.934
-15.21 4.876 9.907
-15.26 4.71 9.888
-15.3 4.545 9.877
-15.36 4.381 9.872
-15.42 4.217 9.872
-15.47 4.055 9.876
-15.53 3.895 9.883
-15.58 3.739 9.893
-15.64 3.588 9.907
-15.69 3.443 9.925
-15.74 3.304 9.949
-15.8 3.171 9.981
-15.85 3.043 10.02
-15.91 2.918 10.07
-15.98 2.794 10.13
-16.05 2.671 10.19
-16.12 2.551 10.25
-16.19 2.436 10.31
-16.25 2.329 10.38
-16.32 2.231 10.43
-16.39 2.14 10.49
-16.46 2.053 10.54
-16.53 1.964 10.59
-16.62 1.869 10.65
-16.71 1.765 10.72
-16.8 1.655 10.78
-16.89 1.54 10.83
-16.95 1.424 10.87
-16.98 1.307 10.9
-16.99 1.191 10.9
-16.97 1.075 10.89
-16.92 0.9562 10.87
-16.86 0.8357 10.83
-16.79 0.7136 10.79
-16.72 0.5904 10.75
-16.65 0.4664 10.71
-16.59 0.3405 10.66
-16.53 0.2114 10.61
-16.47 0.07768 10.57
-16.42 -0.06145 10.53
-16.38 -0.2066 10.48
-16.34 -0.3587 10.44
-16.31 -0.5185 10.41
-16.29 -0.6868 10.37
-16.28 -0.8637 10.34
-16.27 -1.049 10.32
-16.28 -1.244 10.3
-16.29 -1.448 10.28
-16.31 -1.66 10.28
-16.34 -1.879 10.27
-16.38 -2.102 10.27
-16.43 -2.324 10.28
-16.48 -2.542 10.29
-16.53 -2.752 10.3
-16.59 -2.95 10.31
-16.65 -3.137 10.33
-16.71 -3.315 10.35
-16.77 -3.486 10.37
-16.84 -3.654 10.39
-16.91 -3.821 10.41
-16.98 -3.989 10.44
-17.05 -4.155 10.46
-17.13 -4.316 10.48
-17.2 -4.468 10.51
-17.26 -4.608 10.53
-17.33 -4.737 10.55
-17.39 -4.857 10.57
-17.45 -4.977 10.58
-17.52 -5.103 10.6
-17.6 -5.241 10.62
-17.69 -5.39 10.64
-17.79 -5.547 10.67
-17.89 -5.705 10.69
-18 -5.861 10.72
-18.11 -6.012 10.74
-18.22 -6.16 10.77
-18.34 -6.303 10.79
-18.46 -6.443 10.81
-18.58 -6.577 10.83
-18.71 -6.705 10.84
-18.83 -6.826 10.86
-18.96 -6.943 10.88
-19.08 -7.058 10.9
-19.22 -7.173 10.92
-19.35 -7.288 10.94
-19.49 -7.404 10.96
-19.62 -7.52 10.98
-19.74 -7.636 11
-19.86 -7.752 11.01
-19.95 -7.871 11.02
-20.02 -7.992 11.02
-20.07 -8.117 11
-20.1 -8.245 10.98
-20.12 -8.377 10.95
-20.11 -8.511 10.91
-20.1 -8.649 10.87
-20.09 -8.788 10.83
-20.07 -8.928 10.79
-20.04 -9.07 10.74
-20.02 -9.214 10.7
-19.99 -9.359 10.65
-19.97 -9.51 10.6
-19.95 -9.667 10.54
-19.93 -9.834 10.49
-19.92 -10.01 10.43
-19.91 -10.2 10.37
-19.91 -10.4 10.31
-19.91 -10.59 10.25
-19.92 -10.78 10.2
-19.93 -10.95 10.16
-19.95 -11.12 10.12
-19.98 -11.28 10.08
-20.02 -11.43 10.05
-20.06 -11.59 10.02
-20.11 -11.75 9.995
-20.17 -11.92 9.969
-20.23 -12.08 9.944
-20.29 -12.25 9.921
-20.35 -12.41 9.9
-20.41 -12.56 9.881
-20.47 -12.7 9.866
-20.54 -12.83 9.854
-20.6 -12.96 9.843
-20.67 -13.1 9.834
-20.75 -13.23 9.826
-20.83 -13.37 9.818
-20.92 -13.51 9.81
-21.01 -13.64 9.802
-21.1 -13.78 9.795
-21.19 -13.91 9.789
-21.29 -14.04 9.785
-21.4 -14.17 9.783
-21.51 -14.3 9.782
-21.63 -14.43 9.782
-21.75 -14.56 9.782
-21.87 -14.68 9.783
-21.99 -14.81 9.783
-22.11 -14.92 9.782
-22.22 -15.03 9.781
-22.33 -15.13 9.779
-22.44 -15.23 9.776
-22.56 -15.33 9.772
-22.67 -15.43 9.767
-22.77 -15.53 9.759
-22.86 -15.63 9.748
-22.92 -15.74 9.734
-22.95 -15.84 9.715
-22.95 -15.95 9.692
-22.92 -16.06 9.665
-22.86 -16.16 9.634
-22.79 -16.27 9.6
-22.72 -16.37 9.565
-22.64 -16.48 9.528
-22.56 -16.58 9.49
-22.49 -16.69 9.451
-22.42 -16.8 9.41
-22.35 -16.92 9.368
-22.29 -17.04 9.325
-22.23 -17.18 9.281
-22.17 -17.31 9.237
-22.12 -17.45 9.193
-22.07 -17.58 9.15
-22.03 -17.71 9.109
-22 -17.84 9.067
-21.97 -17.97 9.026
-21.95 -18.1 8.984
-21.94 -18.22 8.941
-21.93 -18.35 8.899
-21.93 -18.47 8.86
-21.94 -18.59 8.824
-21.95 -18.7 8.793
-21.97 -18.82 8.766
-21.99 -18.94 8.743
-22.01 -19.06 8.722
-22.04 -19.2 8.701
-22.08 -19.34 8.68
-22.12 -19.49 8.658
-22.16 -19.65 8.635
-22.21 -19.82 8.612
-22.26 -19.99 8.588
-22.31 -20.16 8.565
-22.36 -20.32 8.541
-22.42 -20.49 8.518
-22.49 -20.66 8.494
-22.56 -20.83 8.47
-22.63 -20.99 8.445
-22.7 -21.15 8.421
-22.77 -21.28 8.399
-22.84 -21.41 8.378
-22.91 -21.52 8.36
-22.98 -21.63 8.343
-23.04 -21.73 8.328
-23.11 -21.83 8.313
-23.18 -21.94 8.299
-23.26 -22.04 8.287
-23.33 -22.14 8.277
-23.4 -22.23 8.27
-23.48 -22.31 8.265
-23.56 -22.39 8.261
-23.64 -22.47 8.257
-23.73 -22.53 8.253
-23.82 -22.59 8.247
-23.92 -22.65 8.239
-24.02 -22.69 8.231
-24.13 -22.73 8.224
-24.25 -22.77 8.219
-24.37 -22.81 8.218
-24.5 -22.84 8.22
-24.63 -22.87 8.226
-24.77 -22.91 8.235
-24.91 -22.94 8.249
-25.04 -22.97 8.265
-25.16 -22.99 8.283
-25.27 -23.01 8.303
-25.37 -23.03 8.324
-25.46 -23.04 8.344
-25.54 -23.04 8.365
-25.62 -23.04 8.387
-25.7 -23.03 8.412
-25.78 -23.02 8.44
-25.86 -23 8.471
-25.94 -22.98 8.505
-26.02 -22.96 8.543
-26.09 -22.95 8.584
-26.16 -22.94 8.628
-26.21 -22.94 8.675
-26.26 -22.94 8.725
-26.3 -22.95 8.778
-26.33 -22.97 8.836
-26.34 -22.98 8.903
-26.35 -23 8.98
-26.36 -23.02 9.072
-26.36 -23.03 9.177
-26.37 -23.04 9.295
-26.4 -23.05 9.423
-26.45 -23.06 9.559
-26.51 -23.06 9.699
-26.6 -23.06 9.84
-26.69 -23.06 9.974
-26.8 -23.05 10.1
-26.9 -23.04 10.2
-27 -23.04 10.29
-27.1 -23.03 10.36
-27.19 -23.02 10.42
-27.28 -23.01 10.47
-27.37 -23 10.5
-27.46 -22.98 10.52
-27.55 -22.97 10.54
-27.65 -22.95 10.55
-27.75 -22.93 10.56
-27.86 -22.9 10.56
-27.97 -22.87 10.56
-28.09 -22.83 10.56
-28.2 -22.79 10.55
-28.32 -22.75 10.55
-28.43 -22.7 10.54
-28.55 -22.65 10.53
-28.66 -22.59 10.52
-28.77 -22.54 10.5
-28.88 -22.47 10.48
-28.98 -22.41 10.45
-29.09 -22.33 10.42
-29.21 -22.25 10.38
-29.33 -22.17 10.34
-29.45 -22.08 10.3
-29.57 -21.99 10.26
-29.69 -21.9 10.22
-29.81 -21.82 10.18
-29.92 -21.75 10.14
-30.03 -21.68 10.11
-30.14 -21.61 10.07
-30.26 -21.55 10.03
-30.38 -21.48 9.98
-30.5 -21.41 9.929
-30.62 -21.34 9.875
-30.74 -21.27 9.817
-30.84 -21.21 9.755
-30.94 -21.15 9.688
-31.03 -21.09 9.617
-31.11 -21.04 9.542
-31.19 -20.98 9.46
-31.26 -20.92 9.373
-31.34 -20.87 9.282
-31.41 -20.81 9.188
-31.48 -20.76 9.093
-31.54 -20.71 8.997
-31.59 -20.66 8.898
-31.64 -20.62 8.793
-31.68 -20.58 8.68
-31.72 -20.54 8.559
-31.76 -20.5 8.434
-31.8 -20.46 8.306
-31.84 -20.42 8.178
-31.87 -20.38 8.052
-31.89 -20.35 7.927
-31.91 -20.31 7.803
-31.93 -20.27 7.679
-31.94 -20.24 7.555
-31.94 -20.2 7.435
-31.95 -20.17 7.321
-31.95 -20.13 7.217
-31.94 -20.1 7.126
-31.94 -20.08 7.05
-31.93 -20.06 6.988
-31.92 -20.05 6.936
-31.9 -20.04 6.89
-31.89 -20.03 6.845
-31.87 -20.02 6.798
-31.85 -20.01 6.749
-31.85 -19.99 6.698
-31.85 -19.96 6.646
-31.87 -19.92 6.594
-31.9 -19.87 6.54
-31.94 -19.81 6.484
-31.99 -19.75 6.425
-32.04 -19.68 6.361
-32.09 -19.6 6.292
-32.14 -19.5 6.218
-32.2 -19.4 6.141
-32.24 -19.28 6.062
-32.29 -19.15 5.985
-32.33 -19.01 5.912
-32.36 -18.87 5.844
-32.39 -18.73 5.782
-32.41 -18.59 5.725
-32.43 -18.44 5.672
-32.45 -18.29 5.623
-32.45 -18.14 5.577
-32.46 -17.98 5.534
-32.46 -17.82 5.497
-32.46 -17.66 5.466
-32.45 -17.51 5.442
-32.44 -17.35 5.424
-32.43 -17.19 5.412
-32.41 -17.04 5.404
-32.4 -16.87 5.4
-32.38 -16.71 5.4
-32.36 -16.55 5.405
-32.34 -16.39 5.414
-32.32 -16.24 5.429
-32.3 -16.09 5.449
-32.27 -15.94 5.475
-32.25 -15.8 5.507
-32.22 -15.65 5.548
-32.2 -15.49 5.599
-32.17 -15.33 5.661
-32.14 -15.15 5.735
-32.11 -14.97 5.818
-32.08 -14.79 5.908
-32.04 -14.61 6.002
-32.01 -14.45 6.099
-31.97 -14.29 6.201
-31.94 -14.14 6.307
-31.9 -14 6.421
-31.86 -13.87 6.541
-31.82 -13.73 6.666
-31.78 -13.6 6.792
-31.73 -13.48 6.915
-31.69 -13.36 7.031
-31.64 -13.26 7.138
-31.6 -13.16 7.238
-31.55 -13.06 7.336
-31.5 -12.96 7.437
-31.44 -12.86 7.544
-31.37 -12.74 7.655
-31.29 -12.61 7.767
-31.22 -12.48 7.872
-31.15 -12.33 7.962
-31.1 -12.19 8.033
-31.06 -12.04 8.082
-31.04 -11.88 8.11
-31.03 -11.72 8.12
-31.03 -11.56 8.118
-31.04 -11.39 8.107
-31.06 -11.23 8.092
-31.07 -11.06 8.073
-31.09 -10.9 8.053
-31.11 -10.73 8.031
-31.12 -10.56 8.009
-31.14 -10.39 7.988
-31.15 -10.22 7.968
-31.16 -10.04 7.95
-31.17 -9.874 7.936
-31.17 -9.701 7.925
-31.17 -9.523 7.918
-31.17 -9.341 7.912
-31.16 -9.154 7.908
-31.15 -8.966 7.905
-31.13 -8.782 7.904
-31.11 -8.603 7.905
-31.09 -8.428 7.911
-31.07 -8.252 7.92
-31.05 -8.072 7.935
-31.03 -7.885 7.954
-31 -7.692 7.977
-30.98 -7.498 8.002
-30.96 -7.311 8.029
-30.93 -7.132 8.057
-30.91 -6.963 8.087
-30.88 -6.8 8.12
-30.85 -6.638 8.157
-30.81 -6.474 8.197
-30.77 -6.306 8.242
-30.73 -6.136 8.29
-30.68 -5.964 8.341
-30.63 -5.793 8.394
-30.57 -5.625 8.45
-30.51 -5.465 8.506
-30.45 -5.316 8.562
-30.39 -5.181 8.616
-30.32 -5.06 8.668
-30.26 -4.95 8.72
-30.2 -4.847 8.774
-30.14 -4.748 8.831
-30.07 -4.65 8.895
-29.99 -4.553 8.967
-29.91 -4.456 9.045
-29.83 -4.36 9.129
-29.74 -4.267 9.217
-29.64 -4.176 9.304
-29.55 -4.089 9.39
-29.45 -4.007 9.473
-29.35 -3.928 9.552
-29.25 -3.852 9.628
-29.15 -3.779 9.702
-29.04 -3.707 9.774
-28.93 -3.637 9.845
-28.81 -3.568 9.915
-28.7 -3.499 9.983
-28.58 -3.429 10.05
-28.47 -3.358 10.11
-28.35 -3.283 10.17
-28.25 -3.2 10.22
-28.15 -3.107 10.26
-28.07 -2.998 10.29
-28 -2.874 10.3
-27.96 -2.733 10.29
-27.93 -2.578 10.27
-27.91 -2.413 10.23
-27.91 -2.24 10.19
-27.9 -2.061 10.14
-27.9 -1.875 10.08
-27.89 -1.684 10.03
-27.88 -1.488 9.966
-27.87 -1.287 9.902
-27.85 -1.082 9.836
-27.83 -0.8756 9.768
-27.81 -0.6678 9.698
-27.78 -0.4594 9.627
-27.76 -0.2523 9.556
-27.73 -0.0493 9.486
-27.69 0.1458 9.419
-27.66 0.3303 9.358
-27.62 0.5036 9.304
-27.58 0.6679 9.259
-27.54 0.8266 9.221
-27.49 0.983 9.19
-27.44 1.139 9.163
-27.39 1.295 9.14
-27.34 1.454 9.12
-27.29 1.616 9.103
-27.23 1.783 9.09
-27.17 1.955 9.082
-27.11 2.132 9.079
-27.05 2.312 9.081
-26.98 2.492 9.089
-26.92 2.668 9.102
-26.85 2.835 9.121
-26.79 2.99 9.144
-26.73 3.132 9.172
-26.66 3.261 9.206
-26.6 3.38 9.245
-26.53 3.489 9.292
-26.46 3.59 9.346
-26.38 3.681 9.409
-26.3 3.764 9.48
-26.21 3.84 9.558
-26.12 3.911 9.64
-26.03 3.977 9.725
-25.94 4.042 9.809
-25.84 4.109 9.894
-25.74 4.177 9.978
-25.64 4.249 10.06
-25.53 4.324 10.15
-25.42 4.398 10.23
-25.3 4.47 10.32
-25.2 4.536 10.4
-25.09 4.595 10.47
-24.99 4.646 10.55
-24.89 4.691 10.61
-24.8 4.73 10.68
-24.71 4.766 10.74
-24.61 4.801 10.81
-24.51 4.836 10.87
-24.41 4.873 10.94
-24.31 4.915 11
-24.2 4.963 11.05
-24.11 5.021 11.1
-24.03 5.094 11.13
-23.97 5.185 11.14
-23.93 5.297 11.14
-23.91 5.43 11.11
-23.91 5.579 11.07
-23.91 5.738 11.01
-23.93 5.902 10.95
-23.94 6.066 10.88
-23.96 6.229 10.82
-23.97 6.393 10.75
-23.98 6.562 10.68
-23.98 6.741 10.62
-23.97 6.933 10.56
-23.94 7.14 10.51
-23.9 7.361 10.47
-23.85 7.588 10.44
-23.79 7.816 10.42
-23.72 8.038 10.41
-23.64 8.251 10.41
-23.56 8.454 10.41
-23.48 8.643 10.43
-23.4 8.819 10.45
-23.31 8.98 10.47
-23.22 9.128 10.51
-23.13 9.266 10.55
-23.03 9.396 10.6
-22.92 9.519 10.65
-22.81 9.636 10.71
-22.69 9.748 10.76
-22.57 9.854 10.83
-22.45 9.956 10.89
-22.31 10.05 10.96
-22.18 10.15 11.03
-22.03 10.24 11.11
-21.89 10.32 11.19
-21.75 10.41 11.27
-21.61 10.49 11.34
-21.48 10.58 11.41
-21.37 10.66 11.46
-21.28 10.75 11.5
-21.22 10.85 11.52
-21.18 10.96 11.52
-21.17 11.07 11.49
-21.18 11.2 11.45
-21.22 11.33 11.38
-21.26 11.46 11.31
-21.31 11.6 11.23
-21.36 11.74 11.14
-21.41 11.87 11.06
-21.45 12.01 10.98
-21.49 12.15 10.91
-21.52 12.3 10.83
-21.54 12.45 10.76
-21.55 12.63 10.69
-21.56 12.81 10.62
-21.55 13.01 10.56
-21.54 13.22 10.5
-21.52 13.43 10.45
-21.48 13.63 10.41
-21.44 13.84 10.38
-21.4 14.04 10.36
-21.34 14.23 10.35
-21.28 14.43 10.35
-21.2 14.63 10.36
-21.12 14.83 10.37
-21.03 15.03 10.4
-20.94 15.23 10.44
-20.85 15.41 10.48
-20.75 15.59 10.53
-20.65 15.75 10.58
-20.55 15.89 10.64
-20.45 16.02 10.7
-20.34 16.15 10.76
-20.23 16.27 10.82
-20.11 16.39 10.88
-19.99 16.51 10.95
-19.87 16.62 11.02
-19.74 16.71 11.09
-19.62 16.8 11.17
-19.49 16.88 11.24
-19.36 16.96 11.32
-19.24 17.02 11.38
-19.14 17.09 11.44
-19.05 17.16 11.48
-18.98 17.23 11.5
-18.93 17.31 11.5
-18.91 17.39 11.47
-18.91 17.49 11.42
-18.94 17.59 11.35
-18.97 17.71 11.25
-19.01 17.83 11.14
-19.06 17.95 11.02
-19.11 18.08 10.89
-19.15 18.22 10.76
-19.19 18.35 10.63
-19.22 18.49 10.5
-19.25 18.63 10.38
-19.28 18.77 10.26
-19.3 18.9 10.14
-19.31 19.03 10.04
-19.33 19.15 9.938
-19.34 19.26 9.846
-19.34 19.37 9.758
-19.34 19.48 9.672
-19.33 19.6 9.587
-19.31 19.71 9.5
-19.28 19.84 9.411
-19.24 19.97 9.32
-19.2 20.1 9.229
-19.15 20.24 9.141
-19.09 20.36 9.057
-19.03 20.48 8.978
-18.97 20.59 8.903
-18.9 20.7 8.832
-18.83 20.8 8.764
-18.75 20.9 8.699
-18.66 21.01 8.637
-18.57 21.11 8.581
-18.47 21.2 8.533
-18.37 21.3 8.494
-18.27 21.4 8.463
-18.16 21.49 8.44
-18.05 21.58 8.422
-17.94 21.68 8.409
-17.83 21.77 8.399
-17.72 21.86 8.392
-17.62 21.95 8.388
-17.51 22.05 8.387
-17.4 22.15 8.393
-17.29 22.25 8.405
-17.17 22.36 8.425
-17.05 22.47 8.454
-16.93 22.58 8.49
-16.81 22.69 8.53
-16.69 22.79 8.574
-16.59 22.89 8.621
-16.5 22.97 8.671
-16.41 23.06 8.726
-16.33 23.13 8.788
-16.24 23.21 8.857
-16.15 23.29 8.934
-16.06 23.37 9.017
-15.97 23.45 9.101
-15.88 23.53 9.185
-15.79 23.6 9.266
-15.69 23.66 9.342
-15.6 23.72 9.413
-15.51 23.77 9.483
-15.41 23.81 9.552
-15.31 23.86 9.622
-15.2 23.89 9.695
-15.08 23.93 9.768
-14.97 23.97 9.843
-14.84 24 9.917
-14.72 24.03 9.992
-14.6 24.05 10.07
-14.48 24.08 10.14
-14.37 24.09 10.22
-14.25 24.1 10.29
-14.14 24.11 10.37
-14.04 24.12 10.44
-13.93 24.13 10.51
-13.83 24.15 10.57
-13.73 24.19 10.61
-13.65 24.24 10.64
-13.57 24.32 10.63
-13.5 24.44 10.6
-13.44 24.58 10.54
-13.38 24.74 10.46
-13.31 24.92 10.36
-13.23 25.11 10.26
-13.16 25.29 10.15
-13.07 25.47 10.05
-12.99 25.63 9.961
-12.9 25.78 9.882
-12.82 25.91 9.815
-12.73 26.03 9.76
-12.64 26.15 9.714
-12.55 26.26 9.676
-12.44 26.38 9.642
-12.31 26.5 9.612
-12.18 26.63 9.585
-12.04 26.76 9.561
-11.9 26.89 9.54
-11.76 27.01 9.524
-11.63 27.13 9.513
-11.5 27.23 9.508
-11.38 27.32 9.507
-11.25 27.41 9.51
-11.13 27.49 9.515
-11 27.57 9.522
-10.87 27.64 9.529
-10.73 27.71 9.538
-10.59 27.78 9.548
-10.44 27.85 9.561
-10.29 27.91 9.578
-10.14 27.97 9.6
-9.989 28.02 9.629
-9.84 28.06 9.664
-9.693 28.09 9.707
-9.55 28.11 9.752
-9.413 28.12 9.798
-9.287 28.13 9.836
-9.178 28.15 9.861
-9.091 28.17 9.865
-9.029 28.21 9.846
-8.993 28.26 9.802
-8.977 28.33 9.736
-8.976 28.41 9.651
-8.98 28.49 9.555
-8.984 28.57 9.451
-8.982 28.66 9.341
-8.973 28.75 9.228
-8.956 28.83 9.112
-8.933 28.92 8.994
-8.906 29 8.876
-8.875 29.07 8.757
-8.841 29.14 8.637
-8.804 29.21 8.513
-8.762 29.27 8.383
-8.714 29.34 8.247
-8.662 29.4 8.108
-8.604 29.45 7.966
-8.539 29.51 7.824
-8.467 29.56 7.679
-8.385 29.61 7.528
-8.293 29.65 7.371
-8.192 29.69 7.21
-8.082 29.73 7.048
-7.967 29.77 6.89
-7.847 29.81 6.741
-7.722 29.85 6.602
-7.592 29.89 6.474
-7.458 29.93 6.353
-7.322 29.97 6.24
-7.185 30 6.134
-7.048 30.04 6.036
-6.912 30.08 5.948
-6.774 30.12 5.868
-6.633 30.16 5.797
-6.488 30.2 5.735
-6.34 30.24 5.68
-6.19 30.28 5.633
-6.039 30.32 5.59
-5.888 30.37 5.551
-5.737 30.41 5.515
-5.589 30.44 5.482
-5.445 30.48 5.453
-5.309 30.51 5.428
-5.18 30.54 5.408
-5.058 30.57 5.393
-4.939 30.6 5.382
-4.821 30.63 5.373
-4.699 30.65 5.367
-4.57 30.68 5.362
-4.433 30.71 5.359
-4.288 30.73 5.358
-4.134 30.76 5.361
-3.971 30.79 5.368
-3.798 30.82 5.384
-3.612 30.85 5.409
-3.412 30.88 5.445
-3.201 30.91 5.49
-2.984 30.95 5.544
-2.772 30.98 5.603
-2.572 31.01 5.666
-2.392 31.04 5.733
-2.232 31.07 5.804
-2.087 31.1 5.88
-1.953 31.12 5.962
-1.826 31.14 6.049
-1.701 31.16 6.141
-1.578 31.18 6.234
-1.457 31.19 6.328
-1.339 31.2 6.421
-1.225 31.21 6.513
-1.114 31.21 6.605
-1.007 31.21 6.699
-0.902 31.21 6.797
-0.7971 31.2 6.902
-0.6909 31.19 7.014
-0.5831 31.18 7.132
-0.4743 31.16 7.254
-0.3659 31.13 7.377
-0.2593 31.11 7.497
-0.1548 31.08 7.615
-0.05266 31.04 7.728
0.04714 31 7.839
0.1439 30.96 7.946
0.2367 30.92 8.052
0.3245 30.87 8.155
0.4074 30.82 8.258
0.4864 30.76 8.363
0.563 30.7 8.47
0.639 30.64 8.579
0.7157 30.57 8.688
0.7946 30.51 8.793
0.8772 30.45 8.888
0.9657 30.4 8.967
1.062 30.37 9.026
1.169 30.35 9.061
1.286 30.34 9.073
1.414 30.35 9.063
1.551 30.37 9.037
1.694 30.39 9
1.844 30.42 8.954
2 30.44 8.903
2.163 30.46 8.846
2.333 30.48 8.786
2.508 30.49 8.722
2.685 30.5 8.657
2.864 30.51 8.59
3.044 30.51 8.523
3.226 30.5 8.455
3.41 30.49 8.386
3.597 30.48 8.316
3.784 30.46 8.246
3.966 30.44 8.179
4.141 30.42 8.117
4.308 30.39 8.061
4.467 30.37 8.012
4.623 30.33 7.97
4.777 30.3 7.935
4.932 30.26 7.906
5.087 30.21 7.883
5.242 30.16 7.866
5.396 30.11 7.855
5.548 30.06 7.85
5.697 30 7.85
5.843 29.95 7.854
5.985 29.89 7.862
6.123 29.84 7.873
6.258 29.78 7.888
6.393 29.72 7.908
6.528 29.66 7.933
6.666 29.59 7.964
6.807 29.52 8
6.949 29.44 8.04
7.093 29.36 8.082
7.237 29.28 8.127
7.38 29.2 8.172
7.521 29.11 8.216
7.658 29.03 8.26
7.79 28.95 8.303
7.917 28.87 8.344
8.038 28.79 8.386
8.153 28.72 8.428
8.261 28.64 8.473
8.362 28.57 8.524
8.46 28.5 8.583
8.557 28.42 8.654
8.658 28.33 8.738
8.765 28.24 8.836
8.876 28.14 8.943
8.991 28.04 9.056
9.104 27.94 9.169
9.214 27.84 9.278
9.319 27.75 9.38
9.421 27.65 9.476
9.52 27.56 9.561
9.618 27.48 9.632
9.714 27.4 9.685
9.809 27.34 9.714
9.904 27.28 9.719
9.999 27.25 9.698
10.1 27.22 9.657
10.19 27.19 9.599
10.29 27.17 9.529
10.39 27.16 9.452
10.49 27.14 9.371
10.58 27.11 9.288
10.67 27.09 9.208
10.76 27.06 9.13
10.85 27.03 9.057
10.94 26.99 8.987
11.02 26.94 8.921
11.11 26.9 8.856
11.2 26.84 8.791
11.29 26.77 8.725
11.39 26.7 8.656
11.49 26.62 8.586
11.59 26.54 8.515
11.7 26.45 8.445
11.81 26.35 8.378
11.92 26.26 8.316
12.03 26.16 8.259
12.13 26.07 8.208
12.24 25.98 8.163
12.34 25.89 8.123
12.44 25.8 8.087
12.54 25.71 8.055
12.65 25.62 8.027
12.77 25.52 8.004
12.89 25.41 7.988
13.02 25.29 7.978
13.14 25.18 7.977
13.26 25.07 7.984
13.38 24.96 8.001
13.49 24.87 8.028
13.6 24.77 8.062
13.7 24.68 8.103
13.79 24.6 8.149
13.88 24.52 8.199
13.97 24.44 8.253
14.06 24.36 8.314
14.16 24.28 8.384
14.26 24.19 8.464
14.37 24.1 8.554
14.48 24 8.65
14.59 23.91 8.747
14.68 23.82 8.843
14.77 23.73 8.937
14.84 23.65 9.032
14.92 23.56 9.131
14.98 23.46 9.234
15.05 23.35 9.339
15.12 23.24 9.438
15.19 23.14 9.524
15.26 23.04 9.59
15.34 22.96 9.631
15.42 22.89 9.649
15.5 22.82 9.644
15.59 22.76 9.62
15.69 22.71 9.583
15.8 22.65 9.534
15.91 22.58 9.478
16.02 22.52 9.416
16.14 22.45 9.351
16.26 22.38 9.286
16.38 22.31 9.224
16.5 22.24 9.164
16.61 22.17 9.108
16.72 22.1 9.055
16.83 22.02 9.001
16.94 21.94 8.947
17.06 21.85 8.891
17.18 21.75 8.833
17.3 21.66 8.774
17.42 21.56 8.715
17.54 21.46 8.655
17.66 21.35 8.595
17.79 21.23 8.537
17.91 21.11 8.48
18.04 20.98 8.425
18.17 20.85 8.375
18.3 20.71 8.33
18.42 20.58 8.29
18.53 20.45 8.256
18.63 20.33 8.229
18.72 20.22 8.207
18.8 20.11 8.192
18.87 20 8.182
18.94 19.9 8.177
19.01 19.78 8.177
19.07 19.66 8.18
19.14 19.54 8.188
19.2 19.42 8.199
19.27 19.3 8.216
19.32 19.17 8.238
19.38 19.06 8.264
19.43 18.94 8.295
19.48 18.82 8.33
19.53 18.71 8.369
19.57 18.59 8.413
19.61 18.48 8.463
19.65 18.36 8.52
19.68 18.24 8.584
19.71 18.12 8.656
19.74 18 8.734
19.76 17.87 8.821
19.77 17.74 8.915
19.78 17.61 9.019
19.78 17.46 9.134
19.77 17.31 9.26
19.76 17.16 9.396
19.74 17 9.539
19.72 16.84 9.686
19.71 16.67 9.833
19.69 16.52 9.979
19.67 16.36 10.12
19.65 16.21 10.26
19.63 16.07 10.39
19.62 15.93 10.52
19.6 15.8 10.63
19.58 15.68 10.74
19.56 15.57 10.83
19.53 15.47 10.92
19.51 15.37 11
19.48 15.28 11.07
19.46 15.18 11.13
19.45 15.08 11.17
19.45 14.99 11.2
19.47 14.9 11.2
19.52 14.81 11.18
19.58 14.72 11.13
19.67 14.63 11.07
19.77 14.55 10.99
19.87 14.46 10.9
19.99 14.37 10.8
20.1 14.28 10.71
20.2 14.2 10.62
20.3 14.11 10.53
20.39 14.03 10.45
20.48 13.94 10.38
20.57 13.84 10.31
20.65 13.74 10.25
20.73 13.64 10.19
20.81 13.52 10.13
20.88 13.41 10.08
20.96 13.28 10.04
21.03 13.16 9.994
21.1 13.03 9.959
21.16 12.9 9.929
21.22 12.78 9.905
21.27 12.66 9.885
21.32 12.54 9.871
21.37 12.42 9.861
21.41 12.3 9.856
21.45 12.18 9.854
21.49 12.05 9.857
21.53 11.91 9.865
21.56 11.77 9.879
21.59 11.62 9.9
21.62 11.46 9.928
21.64 11.3 9.965
21.66 11.14 10.01
21.66 10.96 10.08
21.66 10.77 10.15
21.64 10.57 10.24
21.62 10.36 10.34
21.58 10.16 10.45
21.54 9.953 10.56
21.5 9.755 10.67
21.45 9.564 10.77
21.41 9.379 10.87
21.37 9.202 10.96
21.34 9.035 11.03
21.33 8.881 11.09
21.35 8.742 11.12
21.39 8.62 11.13
21.45 8.513 11.11
21.53 8.416 11.07
21.64 8.324 11.01
21.76 8.23 10.93
21.9 8.133 10.84
22.04 8.031 10.74
22.18 7.925 10.63
22.32 7.819 10.52
22.45 7.713 10.41
22.57 7.608 10.31
22.68 7.504 10.22
22.78 7.397 10.14
22.87 7.285 10.06
22.96 7.165 9.996
23.03 7.037 9.932
23.11 6.903 9.873
23.18 6.764 9.817
23.25 6.622 9.766
23.31 6.476 9.721
23.37 6.325 9.682
23.43 6.168 9.651
23.5 6.005 9.627
23.56 5.837 9.61
23.62 5.669 9.602
23.69 5.502 9.6
23.75 5.339 9.606
23.81 5.181 9.619
23.87 5.028 9.639
23.92 4.881 9.665
23.97 4.739 9.698
24.02 4.606 9.735
24.06 4.481 9.776
24.09 4.362 9.823
24.12 4.245 9.876
24.14 4.126 9.935
24.15 4.002 10
24.16 3.872 10.07
24.16 3.738 10.15
24.17 3.599 10.23
24.17 3.458 10.3
24.17 3.313 10.38
24.17 3.163 10.44
24.19 3.01 10.5
24.22 2.854 10.53
24.27 2.7 10.54
24.35 2.552 10.52
24.45 2.413 10.46
24.58 2.284 10.38
24.72 2.165 10.27
24.86 2.053 10.14
25 1.946 10.01
25.14 1.844 9.885
25.27 1.745 9.759
25.38 1.648 9.642
25.49 1.548 9.536
25.59 1.442 9.442
25.68 1.327 9.359
25.76 1.2 9.286
25.84 1.059 9.221
25.92 0.9075 9.162
26 0.7483 9.109
26.07 0.5854 9.063
26.14 0.4218 9.025
26.2 0.2593 8.995
26.27 0.09792 8.974
26.32 -0.06289 8.963
26.38 -0.2244 8.963
26.43 -0.3882 8.973
26.47 -0.5553 8.993
26.52 -0.7263 9.022
26.56 -0.9006 9.058
26.6 -1.077 9.1
26.64 -1.254 9.147
26.67 -1.431 9.197
26.71 -1.607 9.248
26.74 -1.782 9.301
26.76 -1.956 9.355
26.79 -2.127 9.41
26.81 -2.296 9.466
26.84 -2.463 9.524
26.86 -2.627 9.585
26.87 -2.792 9.649
26.89 -2.959 9.718
26.9 -3.128 9.79
26.91 -3.299 9.865
26.92 -3.47 9.94
26.92 -3.641 10.01
26.93 -3.812 10.09
26.94 -3.981 10.16
26.94 -4.149 10.23
26.95 -4.314 10.3
26.96 -4.474 10.36
26.97 -4.625 10.42
26.99 -4.762 10.47
27.02 -4.884 10.5
27.06 -4.989 10.51
27.12 -5.08 10.5
27.19 -5.161 10.47
27.27 -5.237 10.43
27.37 -5.312 10.37
27.48 -5.388 10.29
27.59 -5.467 10.21
27.71 -5.547 10.13
27.82 -5.626 10.05
27.93 -5.703 9.967
28.02 -5.777 9.893
28.11 -5.849 9.825
28.2 -5.921 9.763
28.28 -5.995 9.702
28.35 -6.072 9.642
28.43 -6.155 9.578
28.51 -6.244 9.51
28.58 -6.341 9.439
28.66 -6.442 9.365
28.73 -6.548 9.291
28.8 -6.656 9.219
28.86 -6.764 9.151
28.93 -6.869 9.088
28.99 -6.97 9.031
29.04 -7.067 8.978
29.09 -7.161 8.927
29.14 -7.256 8.877
29.18 -7.356 8.824
29.23 -7.462 8.767
29.27 -7.575 8.709
29.31 -7.694 8.65
29.34 -7.818 8.593
29.38 -7.947 8.539
29.41 -8.083 8.487
29.44 -8.228 8.438
29.48 -8.381 8.39
29.5 -8.542 8.343
29.53 -8.706 8.297
29.55 -8.87 8.253
29.57 -9.031 8.213
29.59 -9.19 8.177
29.6 -9.348 8.144
29.61 -9.51 8.115
29.62 -9.676 8.088
29.62 -9.848 8.062
29.63 -10.02 8.037
29.63 -10.2 8.014
29.63 -10.37 7.994
29.62 -10.53 7.978
29.61 -10.69 7.967
29.59 -10.85 7.961
29.57 -11.01 7.961
29.55 -11.16 7.966
29.52 -11.32 7.974
29.49 -11.49 7.986
29.45 -11.65 7.999
29.42 -11.82 8.014
29.38 -11.98 8.03
29.34 -12.15 8.048
29.3 -12.31 8.067
29.25 -12.48 8.087
29.2 -12.65 8.106
29.15 -12.82 8.126
29.09 -12.98 8.144
29.04 -13.14 8.164
28.98 -13.29 8.184
28.91 -13.44 8.207
28.84 -13.59 8.233
28.77 -13.73 8.262
28.69 -13.87 8.294
28.62 -14 8.325
28.55 -14.14 8.352
28.49 -14.26 8.371
28.44 -14.38 8.377
28.42 -14.49 8.365
28.42 -14.59 8.331
28.44 -14.69 8.276
28.48 -14.77 8.201
28.54 -14.86 8.109
28.61 -14.95 8.002
28.69 -15.03 7.886
28.77 -15.13 7.762
28.85 -15.23 7.637
28.92 -15.34 7.512
28.99 -15.46 7.39
29.06 -15.59 7.269
29.11 -15.73 7.151
29.17 -15.88 7.036
29.21 -16.04 6.927
29.25 -16.19 6.827
29.28 -16.34 6.738
29.31 -16.48 6.658
29.32 -16.63 6.587
29.34 -16.77 6.522
29.35 -16.91 6.46
29.35 -17.05 6.402
29.35 -17.19 6.347
29.35 -17.33 6.296
29.35 -17.46 6.25
29.34 -17.59 6.207
29.32 -17.71 6.167
29.31 -17.85 6.128
29.28 -17.99 6.088
29.25 -18.14 6.045
29.22 -18.3 5.999
29.18 -18.47 5.951
29.15 -18.65 5.902
29.11 -18.82 5.854
29.06 -18.99 5.809
29.02 -19.16 5.768
28.97 -19.33 5.729
28.92 -19.5 5.693
28.86 -19.68 5.659
28.79 -19.87 5.627
28.73 -20.06 5.597
28.66 -20.26 5.567
28.59 -20.45 5.538
28.52 -20.63 5.511
28.45 -20.81 5.485
28.38 -20.97 5.462
28.32 -21.12 5.441
28.26 -21.26 5.423
28.2 -21.39 5.408
28.14 -21.52 5.394
28.07 -21.64 5.383
28 -21.77 5.373
27.92 -21.91 5.366
27.84 -22.04 5.362
27.76 -22.16 5.363
27.68 -22.28 5.37
27.61 -22.39 5.384
27.53 -22.49 5.406
27.45 -22.58 5.435
27.38 -22.67 5.471
27.3 -22.75 5.513
27.21 -22.83 5.56
27.14 -22.9 5.612
27.06 -22.96 5.668
26.99 -23.01 5.728
26.92 -23.06 5.791
26.86 -23.1 5.857
26.79 -23.13 5.924
26.74 -23.15 5.99
26.7 -23.18 6.053
26.67 -23.2 6.114
26.65 -23.22 6.173
26.65 -23.24 6.236
26.67 -23.27 6.304
26.69 -23.32 6.382
26.73 -23.36 6.469
26.76 -23.41 6.564
26.8 -23.46 6.666
26.83 -23.5 6.774
26.86 -23.54 6.889
26.89 -23.58 7.013
26.92 -23.63 7.147
26.94 -23.67 7.291
26.97 -23.72 7.443
26.99 -23.77 7.6
27 -23.82 7.758
27.01 -23.86 7.911
27 -23.91 8.055
27 -23.94 8.189
26.98 -23.98 8.31
26.95 -24.01 8.418
26.92 -24.04 8.514
26.87 -24.06 8.598
26.8 -24.08 8.672
26.72 -24.1 8.739
26.63 -24.12 8.8
26.53 -24.14 8.856
26.42 -24.15 8.907
26.3 -24.16 8.955
26.18 -24.17 8.999
26.06 -24.18 9.041
25.93 -24.2 9.081
25.79 -24.21 9.121
25.65 -24.23 9.161
25.5 -24.24 9.202
25.35 -24.26 9.243
25.2 -24.28 9.285
25.06 -24.29 9.326
24.91 -24.3 9.365
24.77 -24.31 9.405
24.63 -24.32 9.443
