25.770812 -16.844604 14.292074 -0.110742 -0.693082 0.712302
25.063172 -16.766365 14.290882 -0.041209 -0.698361 0.714558
24.734974 -16.701218 14.263699 -0.318841 -0.774054 0.546974
24.123539 -16.590993 14.031985 -0.296191 -0.804129 0.515410
23.507568 -16.552525 13.786784 -0.354703 -0.827428 0.435372
23.031487 -16.418693 13.428236 -0.737179 -0.231355 0.634856
22.595785 -16.188668 13.054134 -0.640012 -0.290774 0.711221
22.094407 -16.003415 12.733245 -0.578664 -0.249792 0.776371
21.578115 -15.716362 12.356998 -0.724981 -0.186840 0.662942
21.286548 -15.319413 11.883272 -0.819733 0.359604 0.445784
21.197900 -14.802070 11.431505 -0.916910 -0.058826 0.394734
21.000460 -14.384255 10.966117 -0.817373 0.195714 0.541846
20.727934 -13.974325 10.476963 -0.792526 0.076118 0.605069
20.568463 -13.436597 10.099744 -0.821801 0.318403 0.472507
20.599363 -12.898997 9.822095 -0.908878 0.168447 0.381532
20.644370 -12.120421 9.686274 -0.925294 0.025174 0.378414
20.622819 -11.499186 9.671826 -0.919935 -0.081344 0.383539
20.580638 -10.866652 9.775863 -0.816189 -0.247849 0.521926
20.430239 -10.221287 9.798371 -0.729647 -0.204325 0.652584
20.325561 -9.613419 9.766671 -0.978460 -0.118339 0.169149
20.247065 -8.969763 9.527380 -0.995451 -0.050735 0.080648
20.182683 -8.479179 9.140558 -0.994009 -0.077594 0.076976
20.127317 -7.982450 8.746431 -0.994015 -0.099554 0.044980
20.023621 -7.450002 8.408626 -0.975210 -0.150491 0.162228
19.822957 -6.716421 7.929896 -0.980110 -0.156278 0.122319
19.652184 -6.143096 7.477228 -0.964523 -0.132004 0.228625
19.491845 -5.580597 7.202482 -0.865276 -0.049151 0.498881
19.353742 -4.977577 7.011488 -0.826430 0.024877 0.562490
19.275419 -4.377105 6.856664 -0.840309 0.064722 0.538230
19.197844 -3.664156 6.633790 -0.792540 0.151345 0.590741
19.171616 -3.071473 6.521362 -0.975037 0.061328 0.213406
19.143712 -2.505295 6.308522 -0.857841 0.099105 0.504268
19.123282 -1.839993 6.208558 -0.997903 0.043809 -0.047649
19.132166 -1.241313 6.254057 -0.996476 -0.015731 -0.082387
19.045796 -0.620964 6.207523 -0.992992 -0.062816 0.100102
18.891478 0.220301 5.996549 -0.899265 -0.139585 0.414533
18.868068 0.901510 5.712624 -0.991726 0.113856 -0.059297
18.790604 1.502567 5.557104 -0.880291 -0.391160 0.268480
18.469530 2.049519 5.531527 -0.765180 -0.513768 0.387999
18.212493 2.690852 5.657603 -0.720623 -0.252670 0.645647
17.882945 3.069372 5.704926 -0.534596 -0.728663 0.428085
17.557550 3.566413 5.990944 -0.612075 -0.633600 0.473197
17.190042 4.156796 6.207779 -0.641984 -0.591874 0.487383
16.804695 4.652744 6.287170 -0.701404 -0.609867 0.368911
16.557834 5.165924 6.559528 -0.757192 -0.495612 0.425475
16.245941 5.743777 6.640866 -0.786864 -0.429741 0.442908
16.031188 6.361897 6.840610 -0.555791 -0.328565 0.763637
15.833871 7.069500 7.002547 -0.519393 -0.303620 0.798778
15.542634 7.669112 7.034883 -0.536887 -0.270453 0.799129
15.300656 8.325141 7.126565 -0.784205 -0.294331 0.546253
15.068511 8.915885 7.015158 -0.910201 -0.246948 0.332492
14.834761 9.429294 6.727794 -0.914355 -0.248753 0.319495
14.528948 10.151257 6.625619 -0.817155 -0.452007 0.357697
14.181676 10.687313 6.614684 -0.746348 -0.570276 0.343147
13.773119 11.154284 6.572932 -0.739527 -0.607283 0.290359
13.351865 11.678996 6.564858 -0.720218 -0.449297 0.528600
12.950100 12.153121 6.506995 -0.623920 -0.466505 0.626975
12.527849 12.676783 6.501287 -0.544741 -0.484617 0.684400
12.345751 13.191596 6.792653 -0.518733 -0.624700 0.583666
12.036378 13.705514 7.040662 -0.461953 -0.615062 0.638982
11.792970 14.222332 7.304828 -0.448552 -0.507232 0.735878
11.563231 14.753549 7.536565 -0.591432 -0.449042 0.669753
11.256247 15.336572 7.606259 -0.687319 -0.480078 0.545086
10.826462 15.852297 7.618425 -0.567824 -0.574484 0.589529
10.564802 16.349888 7.925891 -0.537047 -0.686321 0.490453
10.083982 16.954086 8.066243 -0.456735 -0.332988 0.824932
9.588817 17.538644 8.064421 -0.271240 -0.470131 0.839884
8.859687 17.934276 8.092585 -0.151205 -0.574749 0.804239
8.221563 18.145835 8.066828 -0.225665 -0.623253 0.748753
7.656717 18.367998 8.039879 -0.288626 -0.589649 0.754327
7.130992 18.631371 7.920120 -0.462180 -0.504615 0.729214
6.564734 18.923163 7.900078 -0.103409 -0.734956 0.670184
5.907474 19.043447 7.916162 -0.000208 -0.550885 0.834581
5.219148 19.202124 8.009501 0.080376 -0.462627 0.882902
4.591777 19.287305 8.127325 0.142380 -0.453800 0.879656
3.985324 19.536755 8.202639 -0.228309 -0.410849 0.882654
3.446106 19.656560 8.132587 -0.077633 -0.535192 0.841156
2.787352 19.606716 8.040711 -0.031177 -0.597821 0.801023
2.142327 19.527365 8.037319 0.117608 -0.559459 0.820471
1.473141 19.423596 8.094580 0.162699 -0.469525 0.867799
0.769584 19.324443 8.126595 0.135993 -0.651144 0.746671
-0.064974 19.215221 8.140786 0.085151 -0.647729 0.757098
-0.922548 19.081427 8.216470 0.213304 -0.686064 0.695570
-1.540514 18.909013 8.283427 0.233317 -0.631556 0.739392
-2.236095 18.747023 8.293373 0.056238 -0.549338 0.833706
-3.014291 18.623792 8.164235 -0.365763 -0.263420 0.892652
-3.601307 18.530211 8.018725 0.085674 -0.682011 0.726306
-4.361359 18.225685 8.003859 0.242049 -0.466747 0.850623
-4.905742 17.981624 8.096938 0.375292 -0.464427 0.802162
-5.481581 17.584153 8.004728 0.349389 -0.792429 0.499983
-6.045186 17.246804 7.949431 0.374617 -0.701236 0.606573
-6.500025 16.798980 7.839772 0.555558 -0.613710 0.560995
-6.952806 16.350880 7.731624 0.420522 -0.474148 0.773527
-7.407739 15.903068 7.621896 0.160806 -0.488004 0.857901
-7.868959 15.517867 7.535478 0.241380 -0.181703 0.953268
-8.215271 14.931936 7.449680 0.592587 -0.325927 0.736622
-8.529985 14.403527 7.415019 0.731746 -0.447718 0.513903
-8.866125 13.816230 7.336693 0.642522 -0.509738 0.572130
-9.387941 13.349738 7.256237 0.431957 -0.579586 0.691009
-9.812814 12.870226 7.246989 0.949285 -0.292763 0.114662
-10.025716 12.300480 7.365514 0.880578 -0.450056 -0.148431
-10.318282 11.769097 7.347121 0.870211 -0.442834 -0.215941
-10.696039 11.249155 7.266154 0.793631 -0.591045 0.144273
-10.998118 10.719049 7.240775 0.833189 -0.284668 0.474089
-11.206408 10.086918 7.334759 0.763169 0.022439 0.645809
-11.409141 9.481704 7.354425 0.647424 -0.614405 0.450941
-11.855194 9.060363 7.172820 0.562561 -0.546656 0.620236
-12.075720 8.540529 6.944215 0.508430 -0.478227 0.716099
-12.285436 7.929813 6.774024 0.776345 -0.384871 0.499162
-12.464876 7.315032 6.626071 0.843248 -0.343351 0.413573
-12.642776 6.610614 6.529722 0.834096 -0.209894 0.510126
-12.845853 5.909578 6.414880 0.856219 -0.251357 0.451341
-13.116125 5.319874 6.569665 0.890402 -0.220109 0.398417
-13.355303 4.747218 6.484160 0.735589 -0.519273 0.435045
-13.595347 4.181118 6.582748 0.924755 -0.315778 0.212396
-13.951114 3.658222 6.517933 0.806486 -0.338715 0.484616
-14.311992 3.080687 6.606164 0.610596 -0.540063 0.579227
-14.617360 2.551023 6.578369 0.362412 -0.258432 0.895472
-14.974716 1.973014 6.669187 0.512972 -0.205620 0.833415
-15.313423 1.420165 6.695303 0.544554 -0.337557 0.767800
-15.647542 0.770830 6.590534 0.752243 -0.455697 0.475889
-15.875650 0.169024 6.591562 0.948785 -0.215439 0.231069
-15.999653 -0.508529 6.641130 0.885181 -0.186720 0.426133
-16.280834 -1.041442 6.631101 0.753958 -0.367473 0.544528
-16.549948 -1.699506 6.574080 0.813767 -0.322809 0.483298
-16.808070 -2.324944 6.631461 0.852863 -0.251377 0.457640
-16.971648 -2.935417 6.679888 0.846944 -0.164302 0.505658
-17.140087 -3.572900 6.803144 0.871263 -0.105056 0.479441
-17.268962 -4.215697 6.955462 0.877173 -0.025627 0.479490
-17.395192 -4.824746 7.216050 0.881946 0.039774 0.469669
-17.474888 -5.412382 7.432419 0.889757 0.050706 0.453609
-17.541632 -6.063522 7.630374 0.885399 0.074053 0.458895
-17.616280 -6.679499 7.928851 0.907281 0.090824 0.410600
-17.690440 -7.233776 8.255614 0.963218 0.055905 0.262840
-17.718753 -7.862415 8.403398 0.989258 -0.080800 0.121819
-17.815070 -8.503145 8.764359 0.988180 -0.142373 0.056828
-17.927392 -9.086399 8.956763 0.977958 -0.151935 0.143225
-18.040733 -9.786609 9.277291 0.982966 -0.121346 0.138035
-18.171654 -10.546222 9.556979 0.979149 -0.115621 0.167030
-18.248770 -11.134205 9.775242 0.992921 -0.086125 0.081789
-18.364783 -11.744626 10.043336 0.980900 -0.157559 0.114062
-18.504884 -12.351813 10.293735 0.957780 -0.272542 0.091536
-18.764011 -12.785380 10.618889 0.677738 -0.315877 0.663998
-19.114464 -13.110813 11.011217 0.845470 -0.487724 0.217500
-18.963499 -13.297068 11.592507 0.827349 -0.369306 -0.423210
-18.755412 -13.580423 12.266228 0.852751 -0.342282 -0.394535
-18.584470 -13.769360 12.862193 0.884606 -0.327206 -0.332277
-18.508956 -14.000807 13.544863 0.966159 -0.251286 -0.058247
-18.551616 -14.216384 14.140730 0.970882 -0.238311 0.024399
-18.685760 -14.447337 14.747799 0.918900 -0.177761 0.352169
-18.961711 -14.659245 15.250706 0.692252 -0.062504 0.718944
-19.286109 -14.976682 15.581564 0.614848 0.043168 0.787463
-19.866625 -15.088899 15.737714 0.024112 -0.236026 0.971447
-20.525366 -15.026252 15.807194 0.191259 -0.220295 0.956499
-21.148645 -15.119037 15.907717 0.114098 -0.181200 0.976805
-21.958587 -15.178974 16.067756 0.349579 -0.126345 0.928349
-22.633878 -15.308498 16.246941 0.187936 -0.670222 0.717971
-23.293179 -15.426726 16.401943 0.254815 -0.739011 0.623644
-23.956548 -15.482408 16.580911 0.160563 -0.805820 0.569976
-24.569391 -15.452761 16.563162 -0.151190 -0.747356 0.646993
-25.194130 -15.251038 16.478729 -0.366746 -0.605087 0.706659
-25.796209 -15.114510 16.204096 -0.624432 -0.499856 0.600191
-26.327631 -14.747593 15.737926 -0.831634 -0.356339 0.425919
-26.680816 -14.288634 15.260610 -0.921288 -0.182229 0.343541
-26.900172 -13.965263 14.785872 -0.940833 -0.149181 0.304265
-27.227243 -13.422439 14.286876 -0.664101 -0.069888 0.744370
-27.525263 -12.958371 13.984548 -0.275133 0.209832 0.938228
-27.865517 -12.458715 13.763907 -0.235964 0.164056 0.957813
-28.087429 -11.728845 13.538030 -0.002906 0.271389 0.962465
-28.123889 -11.147738 13.356958 -0.161863 0.235623 0.958270
-28.258373 -10.520811 13.221649 -0.352793 0.089114 0.931448
-28.328921 -9.898361 13.109944 -0.533515 0.138409 0.834389
-28.134730 -9.041566 13.012200 -0.582978 0.348582 0.733912
-28.066385 -8.321008 12.690435 -0.574610 0.411051 0.707715
-27.923905 -7.597724 12.376852 -0.549294 0.410317 0.727953
-27.685161 -6.905721 12.158286 -0.451120 0.364443 0.814661
-27.673253 -6.292725 11.931881 -0.518310 0.302115 0.800051
-27.581648 -5.655623 11.679820 -0.489016 0.420169 0.764409
-27.591566 -5.120703 11.369514 -0.438193 0.469641 0.766436
-27.611737 -4.582963 11.064010 -0.402501 0.439754 0.802876
-27.636290 -3.966835 10.705261 -0.396152 0.448862 0.800991
-27.720549 -3.472476 10.340811 -0.430940 0.516488 0.739953
-27.864863 -2.953515 9.932359 -0.547730 0.410310 0.729135
-27.876094 -2.410141 9.550538 -0.516722 0.524107 0.676986
-27.796909 -1.899717 9.198499 -0.519061 0.496697 0.695606
-27.942768 -1.372239 8.718641 -0.527917 0.429215 0.732857
-27.979834 -0.890855 8.332088 -0.539302 0.593931 0.596992
-27.873090 -0.388008 7.967142 -0.555274 0.512985 0.654613
-27.696105 0.148436 7.730389 -0.535722 0.483723 0.692108
-27.398369 0.720775 7.453915 -0.458209 0.616816 0.639987
-27.074604 1.285956 7.165248 -0.444314 0.510347 0.736295
-26.714094 1.841036 6.859373 -0.388485 0.657317 0.645765
-26.282656 2.429524 6.681369 -0.615471 0.402748 0.677488
-25.969857 3.050629 6.558931 -0.519402 0.434294 0.735942
-25.727832 3.630192 6.380679 -0.704963 0.387397 0.594097
-25.536544 4.215613 6.298320 -0.719833 0.304732 0.623682
-25.373287 4.816831 6.156959 -0.744526 0.358852 0.562944
-25.152614 5.532356 6.094502 -0.766478 0.240447 0.595564
-24.980578 6.114978 6.093290 -0.764266 0.238402 0.599218
-24.839989 6.791520 5.979379 -0.759583 0.288957 0.582699
-24.623342 7.361877 5.957272 -0.718064 0.329050 0.613279
-24.363606 8.066663 5.876519 -0.662470 0.376421 0.647642
-24.117978 8.714327 5.713412 -0.633050 0.420018 0.650256
-23.822911 9.271216 5.582447 -0.573000 0.475768 0.667319
-23.670511 9.899694 5.229782 -0.608454 0.515702 0.603188
-23.464244 10.428088 4.979315 -0.607831 0.517677 0.602123
-23.273518 10.960754 4.736127 -0.709279 0.509298 0.487380
-22.917787 11.561964 4.665711 -0.720164 0.518825 0.460634
-22.453136 12.047954 4.671709 -0.551971 0.589706 0.589555
-22.020452 12.473640 4.675846 -0.434304 0.469388 0.768801
-21.484309 12.854699 4.775786 -0.422158 0.346830 0.837551
-20.974488 13.320179 4.832757 -0.700827 0.472902 0.534047
-20.470553 13.641001 4.930950 -0.512263 0.749720 0.418935
-19.911350 14.015720 5.020090 -0.588847 0.693066 0.415835
-19.415073 14.330555 5.193999 -0.570131 0.699441 0.430966
-18.894239 14.723915 5.228980 -0.589515 0.693916 0.413464
-18.367677 15.099516 5.405538 -0.584393 0.686251 0.433065
-17.746013 15.518063 5.554385 -0.645807 0.574452 0.502929
-17.305322 16.063548 5.732697 -0.773633 0.386493 0.502112
-16.881509 16.536491 5.974211 -0.535469 0.395603 0.746171
-16.102406 16.956569 6.282542 -0.314079 0.076600 0.946302
-15.664367 17.494692 6.534225 -0.616248 0.091534 0.782214
-15.277211 17.908620 6.776075 -0.681473 0.192181 0.706160
-14.989012 18.520305 6.809418 -0.765610 0.314970 0.560924
-14.756767 19.078282 6.852136 -0.734617 0.258430 0.627337
-14.544347 19.657892 6.759879 -0.699053 0.410289 0.585651
-14.265727 20.280303 6.725579 -0.797783 0.378971 0.468960
-13.893876 20.938081 6.736576 -0.781678 0.441767 0.440251
-13.393122 21.698604 6.720864 -0.642022 0.522863 0.560733
-13.008160 22.214595 6.692055 -0.562161 0.504544 0.655294
-12.585083 22.720106 6.645394 -0.512365 0.636427 0.576579
-12.086444 23.127659 6.618640 -0.521009 0.688721 0.504196
-11.463669 23.562084 6.622708 -0.499083 0.771654 0.394293
-10.913809 23.870280 6.699392 -0.475519 0.789676 0.387677
-10.762990 23.816435 6.974422 -0.426179 0.815502 0.391572
-10.074520 24.058937 7.148548 -0.396513 0.782757 0.479655
-9.457694 24.247290 7.308757 -0.343762 0.785742 0.514235
-8.791452 24.531437 7.435230 -0.463827 0.783292 0.413905
-8.026873 24.851336 7.641515 -0.451374 0.804054 0.386987
-7.465843 25.068099 7.852588 -0.443078 0.814526 0.374471
-6.832514 25.342418 8.080252 -0.463615 0.827683 0.316230
-6.213785 25.540688 8.248243 -0.376532 0.851949 0.363878
-5.407853 25.761137 8.537152 -0.337542 0.871368 0.356067
-4.765880 25.923057 8.756949 -0.340289 0.884979 0.317829
-3.954953 26.165336 8.873757 -0.282314 0.908786 0.307255
-3.081248 26.415580 8.968242 -0.338732 0.890307 0.304325
-2.497070 26.591303 9.038210 -0.255121 0.915274 0.311749
-1.851232 26.764973 8.888765 -0.155947 0.958125 0.240159
-1.186415 26.880079 8.773695 -0.109764 0.972666 0.204630
-0.471328 26.946374 8.970216 -0.089912 0.986172 0.139217
0.130709 26.904462 9.219304 0.070368 0.931279 0.357447
0.785217 26.812633 9.211421 0.182255 0.909804 0.372880
1.371700 26.685515 9.204419 0.214440 0.913507 0.345717
2.082593 26.568347 9.148081 0.136793 0.926022 0.351811
2.677940 26.487397 9.177305 0.087141 0.897524 0.432270
3.378888 26.322621 9.272842 0.103032 0.639166 0.762136
3.973075 26.235630 9.297326 0.207150 0.906459 0.367995
4.586669 26.092305 9.357937 0.141609 0.860708 0.489007
5.365703 26.011034 9.301194 0.026596 0.896800 0.441637
5.978886 26.018799 9.210800 0.151159 0.890621 0.428888
6.578135 25.953985 9.063454 0.220843 0.867950 0.444850
7.192530 25.963871 8.785492 0.216384 0.868519 0.445929
7.803963 25.958335 8.495428 0.239498 0.847503 0.473687
8.389930 25.824337 8.293797 0.362628 0.851585 0.378555
8.918003 25.401349 8.433098 0.426142 0.685016 0.590895
9.497747 25.081699 8.355352 0.526773 0.560520 0.639005
9.995678 24.808179 8.072813 0.645009 0.421674 0.637303
10.621213 24.714477 7.604667 0.367831 0.677562 0.636875
11.243348 24.760489 7.165821 0.277890 0.805747 0.523019
11.908643 24.716469 6.816988 0.356713 0.733026 0.579162
12.466743 24.594741 6.544654 0.457973 0.524743 0.717569
13.102749 24.402350 6.268631 0.419379 0.595040 0.685601
13.730637 24.171865 6.151948 0.499563 0.484209 0.718317
14.247895 23.845776 6.097722 0.415929 0.556476 0.719261
14.810065 23.438781 6.140670 0.401060 0.522064 0.752728
15.298044 22.964372 6.159293 0.667485 0.609959 0.427099
15.680386 22.420376 6.260786 0.713674 0.560593 0.420006
15.908351 21.718713 6.674170 0.743317 0.447032 0.497636
15.975473 21.132172 7.074371 0.713918 0.440563 0.544265
16.079274 20.575072 7.388772 0.660840 0.460080 0.592973
16.233984 19.964111 7.632337 0.567812 0.333577 0.752539
16.418005 19.377874 7.686242 0.642688 0.225825 0.732089
16.857326 19.205760 7.292203 0.716469 0.167395 0.677238
17.328354 18.994853 6.834190 0.742843 0.198123 0.639478
17.741991 18.724039 6.431870 0.751061 0.254750 0.609106
18.172391 18.403330 6.071374 0.662710 0.321055 0.676564
18.596982 17.943679 5.871528 0.607326 0.277800 0.744299
18.993668 17.325762 5.929690 0.548751 0.513166 0.659949
19.352933 16.809236 6.023045 0.696500 0.571226 0.434268
19.628448 16.208574 6.264416 0.767892 0.431688 0.473273
19.861566 15.703582 6.535106 0.600780 0.676095 0.426568
20.161426 15.061742 6.827250 0.736162 0.402095 0.544412
20.530469 14.550380 6.808710 0.606280 0.528307 0.594404
21.008597 14.353714 6.482514 0.659874 0.428133 0.617470
21.487259 14.088491 6.178983 0.603062 0.450187 0.658519
22.060878 13.857197 5.886137 0.509122 0.446380 0.735894
22.582648 13.779875 5.589417 0.448689 0.388695 0.804733
23.090584 13.686648 5.276369 0.632398 0.397596 0.664823
23.574055 13.496123 4.956478 0.608705 0.373122 0.700184
24.071825 13.183701 4.697539 0.504079 0.289096 0.813836
24.560111 12.728113 4.594912 0.512867 0.515431 0.686512
25.065019 12.297713 4.635343 0.366831 0.514402 0.775130
25.571762 11.869422 4.677939 0.493757 0.414500 0.764456
25.866604 11.360151 4.920087 0.409552 0.558491 0.721356
26.191124 10.878923 5.073830 0.371411 0.591132 0.715973
26.418073 10.297670 5.359275 0.489086 0.585495 0.646522
26.768825 9.633018 5.486654 0.641864 0.331614 0.691407
26.959011 9.003421 5.605270 0.739452 0.274868 0.614539
27.043484 8.264438 5.845979 0.686920 0.264979 0.676703
27.060512 7.661494 6.064404 0.591934 0.281096 0.755380
27.071226 7.051291 6.275377 0.615466 0.252894 0.746489
27.078282 6.436884 6.482033 0.604462 0.223957 0.764505
26.945505 5.812198 6.726434 0.601683 0.128730 0.788293
26.839816 5.212579 6.879373 0.617021 0.107937 0.779509
26.803167 4.617092 7.012404 0.599136 0.180673 0.779996
26.838914 3.976560 7.207234 0.531854 0.315406 0.785908
27.207695 3.459344 7.208373 0.526689 0.472414 0.706699
27.592681 2.962670 7.297364 0.482903 0.444341 0.754564
28.059959 2.406545 7.296521 0.577336 0.424489 0.697490
28.478048 1.817565 7.370449 0.501412 0.461159 0.732064
28.842416 1.132588 7.551632 0.466196 0.454667 0.758907
29.215597 0.637805 7.631786 0.509083 0.476380 0.716866
29.510640 -0.012934 7.836790 0.533701 0.464577 0.706634
29.648000 -0.592148 8.075187 0.524586 0.396216 0.753540
29.694447 -1.197536 8.357119 0.485192 0.352832 0.800062
29.615291 -1.759674 8.620740 0.453203 0.307098 0.836838
29.519040 -2.382943 8.907439 0.410668 0.365161 0.835469
29.529609 -2.982586 9.162511 0.342859 0.378178 0.859901
29.449823 -3.608491 9.461537 0.233620 0.386564 0.892183
29.401904 -4.367236 9.856170 0.294090 0.473153 0.830444
29.385757 -5.003332 10.202838 0.283738 0.427016 0.858575
29.355250 -5.637128 10.538755 0.455785 0.442453 0.772331
29.370014 -6.214306 10.872689 0.464153 0.463777 0.754634
29.410762 -6.859512 11.261951 0.443321 0.524703 0.726742
29.646496 -7.454479 11.573995 0.468580 0.558869 0.684177
29.831083 -8.105124 11.883624 0.564883 0.424058 0.707871
30.051863 -8.680103 11.997156 0.606518 0.293220 0.739025
30.160251 -9.341684 12.174018 0.680401 0.348171 0.644850
30.347420 -10.015880 12.409859 0.747225 0.429115 0.507459
30.368735 -10.594106 12.748697 0.720125 0.275999 0.636589
30.289352 -11.156208 13.012148 0.681841 0.191833 0.705899
30.169878 -11.711890 13.245586 0.652247 0.149634 0.743090
30.021270 -12.326775 13.493088 0.672979 0.102359 0.732545
29.862069 -12.876095 13.696784 0.660698 0.041372 0.749511
29.605575 -13.519979 13.712076 0.706117 -0.377579 0.599027
29.288591 -14.090308 13.646208 0.684589 -0.582789 0.437830
28.865990 -14.684456 13.612867 0.660382 -0.505573 0.555241
28.536031 -15.206433 13.688726 0.845236 -0.303385 0.439925
28.129335 -15.716122 13.707137 0.630140 -0.633625 0.448823
27.703561 -16.176482 13.862706 0.752959 -0.528244 0.392443
27.101377 -16.562320 14.037649 0.438763 -0.669481 0.599401
