Normal PTS (Created by Banna)
-23.491364 -15.300925 11.129479
-23.815081 -15.283323 11.025949
-24.102272 -15.268937 10.886642
-24.362553 -15.239481 10.708699
-24.605692 -15.198442 10.498827
-24.841211 -15.148900 10.263979
-25.071558 -15.079055 10.009981
-25.305559 -14.992984 9.745549
-25.544344 -14.879180 9.476378
-25.811264 -14.766271 9.213196
-26.145647 -14.716288 8.976300
-26.471550 -14.671289 8.755054
-26.756462 -14.590414 8.538659
-27.021425 -14.501101 8.331135
-27.272028 -14.404419 8.131947
-27.511221 -14.298140 7.939254
-27.724276 -14.136212 7.753416
-27.930046 -13.965028 7.566701
-28.133112 -13.782250 7.374615
-28.342203 -13.591500 7.173378
-28.569790 -13.364879 6.960860
-28.784809 -13.111518 6.744295
-28.977938 -12.861040 6.532773
-29.132132 -12.594054 6.328234
-29.236147 -12.304633 6.131871
-29.293299 -12.003103 5.943993
-29.310322 -11.700616 5.764937
-29.311541 -11.412194 5.594788
-29.262974 -11.121564 5.435284
-29.248075 -10.853385 5.286009
-29.287125 -10.591732 5.131245
-29.352955 -10.314363 4.971825
-29.469328 -10.016394 4.840978
-29.621248 -9.691278 4.749382
-29.789824 -9.337614 4.698358
-29.979246 -8.957506 4.689685
-30.121305 -8.564828 4.692598
-30.207895 -8.186718 4.695406
-30.277128 -7.824160 4.709090
-30.318615 -7.473884 4.726406
-30.342360 -7.134454 4.749978
-30.342264 -6.803020 4.776005
-30.323629 -6.478378 4.806287
-30.281919 -6.158553 4.838619
-30.231100 -5.843451 4.878705
-30.175295 -5.532085 4.927439
-30.122057 -5.223159 4.986580
-30.087671 -4.914901 5.060288
-30.067318 -4.604095 5.144383
-30.058325 -4.287674 5.235756
-30.046152 -3.963216 5.327976
-30.036785 -3.628354 5.421499
-30.027073 -3.280955 5.514064
-30.003447 -2.920355 5.600895
-29.910666 -2.551292 5.666966
-29.801668 -2.167872 5.725558
-29.700523 -1.776512 5.781662
-29.601553 -1.402340 5.834730
-29.501375 -1.045213 5.884288
-29.396379 -0.704020 5.929740
-29.289143 -0.376724 5.972130
-29.190109 -0.059609 6.014843
-29.095392 0.248596 6.057414
-29.025808 0.554612 6.106942
-28.949032 0.853912 6.154625
-28.868082 1.148927 6.201918
-28.770203 1.438214 6.245008
-28.678236 1.729261 6.292161
-28.595617 2.025375 6.345785
-28.505121 2.323757 6.400403
-28.407391 2.626342 6.456815
-28.311380 2.937651 6.519371
-28.215258 3.258980 6.588250
-28.117508 3.591651 6.663668
-28.009979 3.934878 6.742651
-27.892908 4.290368 6.825773
-27.763424 4.658955 6.912092
-27.637348 5.035951 7.008886
-27.493357 5.389359 7.101810
-27.338598 5.721953 7.193042
-27.188738 6.040762 7.290222
-27.044418 6.347980 7.393345
-26.909079 6.646738 7.504058
-26.766109 6.932757 7.611827
-26.594704 7.199694 7.702427
-26.443153 7.467578 7.805176
-26.305399 7.736127 7.916183
-26.157103 7.997634 8.018930
-25.999897 8.254303 8.113418
-25.831013 8.506680 8.196804
-25.649311 8.755936 8.267337
-25.458162 9.005076 8.326451
-25.256901 9.255569 8.372883
-25.051565 9.511828 8.410241
-24.847309 9.777749 8.441508
-24.664913 10.064064 8.481257
-24.504177 10.372520 8.529033
-24.363565 10.704185 8.583381
-24.213520 11.048444 8.621944
-24.055252 11.407463 8.644757
-23.891775 11.780930 8.652259
-23.734028 12.143678 8.643250
-23.590130 12.493380 8.623219
-23.456427 12.830265 8.591056
-23.335604 13.157432 8.550721
-23.221645 13.474117 8.499228
-23.111294 13.780775 8.435697
-23.009790 14.081439 8.366294
-22.913469 14.376413 8.289942
-22.820339 14.666763 8.206882
-22.734882 14.956496 8.122924
-22.655657 15.247126 8.038879
-22.582455 15.540811 7.956569
-22.518049 15.841312 7.880446
-22.456898 16.148193 7.807681
-22.402184 16.465616 7.743037
-22.347290 16.792412 7.682689
-22.284044 17.126272 7.621383
-22.198942 17.461273 7.549154
-22.096455 17.801748 7.471817
-21.953579 18.135630 7.371086
-21.813107 18.490576 7.286521
-21.638502 18.845558 7.187474
-21.463194 19.195776 7.087279
-21.277285 19.523077 6.970147
-21.084839 19.831293 6.841167
-20.893801 20.126669 6.708518
-20.699135 20.407162 6.569422
-20.511801 20.680977 6.434303
-20.339035 20.954025 6.310105
-20.191391 21.234545 6.206067
-20.064957 21.521708 6.119589
-19.947783 21.809423 6.041959
-19.829813 22.092728 5.966346
-19.713852 22.374979 5.895889
-19.601694 22.658876 5.832776
-19.487333 22.942024 5.773470
-19.374567 23.228811 5.721511
-19.263517 23.521160 5.677689
-19.152437 23.819691 5.641437
-19.035877 24.122370 5.609862
-18.913975 24.431067 5.583862
-18.770384 24.734760 5.554085
-18.619080 25.045874 5.530457
-18.448336 25.356596 5.506840
-18.248501 25.659939 5.478954
-18.020802 25.957670 5.449141
-17.769115 26.254200 5.421071
-17.501993 26.558357 5.400495
-17.229546 26.857637 5.388278
-16.956600 27.138567 5.382937
-16.682064 27.401089 5.383960
-16.408287 27.648355 5.392373
-16.136154 27.882088 5.408294
-15.845312 28.083296 5.423474
-15.551931 28.267599 5.444634
-15.267179 28.447126 5.475400
-14.984701 28.616573 5.512696
-14.708238 28.781136 5.557019
-14.438428 28.943304 5.607762
-14.176452 29.106613 5.664388
-13.917140 29.266954 5.724580
-13.657625 29.422968 5.787014
-13.400704 29.580023 5.851760
-13.146964 29.741615 5.918312
-12.896981 29.911232 5.985965
-12.656260 30.099655 6.054855
-12.419269 30.302883 6.122898
-12.186218 30.524164 6.189040
-11.952283 30.758537 6.251394
-11.710867 30.997564 6.308228
-11.458139 31.235844 6.358452
-11.192353 31.471378 6.401410
-10.912667 31.703527 6.435876
-10.618303 31.931620 6.463295
-10.300681 32.141365 6.482213
-9.967381 32.347313 6.492681
-9.615076 32.544983 6.493754
-9.257057 32.737232 6.485083
-8.905229 32.906212 6.466195
-8.559413 33.052475 6.437842
-8.222525 33.183838 6.401148
-7.893163 33.299671 6.356794
-7.579383 33.420200 6.306564
-7.273660 33.533379 6.250355
-6.977204 33.646500 6.187491
-6.693320 33.774742 6.121636
-6.411689 33.898125 6.052601
-6.129682 34.014355 5.980966
-5.844275 34.118340 5.906855
-5.554129 34.209312 5.830644
-5.260737 34.298443 5.754385
-4.962750 34.388607 5.679361
-4.655832 34.466206 5.604235
-4.338448 34.527977 5.528831
-4.014637 34.609303 5.460257
-3.674977 34.655125 5.388840
-3.328670 34.750809 5.332362
-2.966815 34.839027 5.280208
-2.587373 34.908524 5.230245
-2.189883 34.964840 5.183999
-1.788765 35.002872 5.138592
-1.402264 35.042450 5.096106
-1.028223 35.069653 5.053637
-0.665938 35.091370 5.012808
-0.314566 35.127327 4.977833
0.028086 35.159218 4.944825
0.363235 35.178829 4.912215
0.691821 35.188999 4.880757
1.014795 35.186199 4.849981
1.333682 35.182766 4.822331
1.649286 35.169807 4.796316
1.962726 35.148209 4.772287
2.274008 35.109142 4.749090
2.583733 35.052269 4.727069
2.894339 34.989719 4.708283
3.205724 34.913357 4.691787
3.519082 34.824146 4.677979
3.837880 34.735603 4.668670
4.166968 34.664864 4.665687
4.507223 34.606052 4.668061
4.860516 34.559940 4.675638
5.221824 34.496735 4.685529
5.596387 34.435165 4.699659
5.981004 34.356346 4.716549
6.385729 34.300419 4.739521
6.797791 34.292088 4.770943
7.187188 34.246304 4.804332
7.559916 34.183796 4.841079
7.920920 34.120495 4.881903
8.277531 34.078114 4.928489
8.613695 33.994434 4.977224
8.935523 33.890919 5.028291
9.244117 33.769772 5.081398
9.541307 33.635128 5.136369
9.830620 33.496254 5.193266
10.115354 33.359173 5.252022
10.393751 33.216251 5.311813
10.663904 33.060211 5.371860
10.927951 32.894657 5.431953
11.192106 32.732086 5.492331
11.457518 32.571445 5.552536
11.727103 32.415611 5.612325
12.001551 32.262432 5.671165
12.280164 32.107216 5.728415
12.567772 31.956594 5.784010
12.864071 31.806801 5.837357
13.178039 31.671711 5.888774
13.499325 31.529089 5.936685
13.836261 31.391764 5.981364
14.183572 31.247993 6.021793
14.534111 31.083250 6.056797
14.891004 30.901342 6.086177
15.244659 30.698597 6.108099
15.573145 30.479168 6.119306
15.878587 30.247747 6.120732
16.158628 29.999115 6.113064
16.417755 29.740421 6.097635
16.668631 29.492046 6.076471
16.900841 29.236362 6.043014
17.123310 28.986856 6.000711
17.340584 28.748528 5.952223
17.554569 28.521173 5.899166
17.774881 28.314358 5.845054
18.008204 28.130941 5.793381
18.257774 27.968315 5.747159
18.517796 27.813768 5.706782
18.779482 27.652924 5.670933
19.046818 27.487297 5.641936
19.320187 27.314116 5.621069
19.603743 27.134796 5.611272
19.901592 26.950581 5.615842
20.196651 26.744669 5.628670
20.494022 26.520666 5.652501
20.797255 26.280657 5.689674
21.063972 25.990191 5.718234
21.340935 25.689251 5.761482
21.609360 25.391830 5.809860
21.867554 25.102402 5.862190
22.094105 24.804443 5.905781
22.293856 24.501238 5.942484
22.482302 24.202835 5.980617
22.661625 23.909361 6.021032
22.833658 23.620800 6.064426
22.988932 23.330126 6.104877
23.120983 23.033018 6.138272
23.242838 22.736460 6.171877
23.351274 22.437759 6.203539
23.447935 22.136847 6.233937
23.533760 21.833412 6.263389
23.613554 21.528778 6.294357
23.683470 21.219946 6.324443
23.748575 20.908268 6.356234
23.813753 20.594763 6.392093
23.880411 20.278725 6.432399
23.953432 19.961029 6.479307
24.044544 19.645473 6.538381
24.154982 19.331200 6.609473
24.288279 19.018551 6.693583
24.435713 18.702688 6.785606
24.599205 18.383543 6.885929
24.773716 18.058105 6.991625
24.941580 17.717861 7.093936
25.066261 17.345697 7.175602
25.163548 16.953644 7.246518
25.326405 16.607721 7.359494
25.418011 16.249172 7.449342
25.493290 15.900580 7.541439
25.513840 15.545162 7.617648
25.583075 15.222850 7.722736
25.607176 14.894646 7.813890
25.617901 14.571734 7.903898
25.625229 14.256051 7.995702
25.627041 13.945032 8.087035
25.635479 13.640952 8.181682
25.654705 13.343036 8.280051
25.682892 13.048558 8.380159
25.719133 12.755169 8.480417
25.775412 12.464542 8.584686
25.837990 12.170631 8.686055
25.919489 11.875302 8.788699
26.021805 11.577223 8.892351
26.135227 11.271934 8.991813
26.253431 10.956168 9.083238
26.383417 10.630269 9.168555
26.510141 10.288646 9.240095
26.632416 9.929440 9.296079
26.740356 9.548457 9.330723
26.818556 9.149036 9.335173
26.903099 8.772240 9.324043
26.978252 8.414767 9.291398
27.038286 8.073292 9.235742
27.115761 7.751342 9.173863
27.207323 7.444524 9.105970
27.313202 7.149287 9.033975
27.430166 6.861979 8.958118
27.549143 6.578833 8.875521
27.654144 6.296103 8.779065
27.762415 6.013343 8.679244
27.864491 5.727468 8.572049
27.960773 5.436267 8.458576
28.054174 5.137457 8.341300
28.141144 4.828036 8.218615
28.230673 4.505918 8.097025
28.324718 4.168444 7.978944
28.424540 3.812834 7.866454
28.533348 3.436988 7.763324
28.652546 3.064832 7.674883
28.774799 2.712138 7.597420
28.894016 2.375400 7.525557
29.007153 2.051365 7.456135
29.112558 1.737078 7.387170
29.212574 1.430778 7.319674
29.312498 1.131880 7.256638
29.414764 0.839142 7.198780
29.520504 0.550969 7.145694
29.630360 0.265443 7.096474
29.743908 -0.019924 7.049388
29.857145 -0.308672 7.000698
29.972673 -0.602556 6.950620
30.094706 -0.903151 6.899966
30.225979 -1.212630 6.848512
30.361933 -1.535137 6.792327
30.496956 -1.874464 6.727552
30.635695 -2.232301 6.655351
30.769812 -2.608740 6.571829
30.881712 -2.974140 6.476586
30.980387 -3.321212 6.375976
31.069511 -3.652139 6.272041
31.152853 -3.969174 6.166777
31.234446 -4.274635 6.062246
31.315010 -4.571490 5.959085
31.386251 -4.863412 5.854331
31.443499 -5.153194 5.746596
31.490648 -5.443102 5.637850
31.525993 -5.735676 5.527802
31.556374 -6.033492 5.419517
31.588169 -6.339755 5.315921
31.625738 -6.657965 5.219346
31.652576 -6.990444 5.123531
31.673822 -7.340307 5.031029
31.667742 -7.708119 4.932577
31.659929 -8.098913 4.839568
31.647793 -8.490393 4.745165
31.629021 -8.863119 4.645276
31.612751 -9.223423 4.548710
31.571434 -9.566394 4.445685
31.520927 -9.898286 4.347744
31.455906 -10.218952 4.254931
31.369204 -10.526720 4.163720
31.266111 -10.826301 4.078043
31.155754 -11.125692 4.007137
31.063162 -11.437404 3.979208
30.986317 -11.758935 3.998540
30.920263 -12.086439 4.062186
30.856050 -12.418916 4.160816
30.722881 -12.763469 4.236156
30.562853 -13.129369 4.340868
30.360104 -13.476253 4.475862
30.132601 -13.772937 4.681275
29.869843 -13.984281 4.964355
29.720562 -14.076342 5.307644
29.689308 -14.118259 5.630517
29.774120 -14.162119 5.950065
29.859051 -14.242405 6.275951
29.936548 -14.360501 6.603352
29.989796 -14.515560 6.927619
30.009651 -14.712306 7.243762
29.970192 -14.937529 7.547749
29.852579 -15.174001 7.835783
29.656815 -15.415649 8.100509
29.418613 -15.626727 8.306646
29.153759 -15.796390 8.454424
28.872360 -15.939646 8.555344
28.577806 -16.062948 8.621368
28.271732 -16.170200 8.664410
27.956425 -16.269354 8.694965
27.633314 -16.369387 8.726142
27.304167 -16.481947 8.773451
26.966095 -16.597872 8.850627
26.608454 -16.677488 8.961697
26.236359 -16.728729 9.116455
25.901022 -16.794586 9.316259
25.601608 -16.861427 9.545150
25.326525 -16.918581 9.790483
25.064558 -16.952469 10.040210
24.808464 -16.958063 10.282952
24.554398 -16.949919 10.509401
24.294216 -16.921953 10.707438
24.020538 -16.892056 10.870917
23.722235 -16.851351 10.989389
23.388649 -16.795965 11.052269
23.010578 -16.721142 11.047448
22.623371 -16.642765 10.976220
22.267099 -16.568626 10.849599
21.955948 -16.462749 10.659166
21.680590 -16.358349 10.426621
21.430244 -16.271969 10.172021
21.218651 -16.175030 9.892170
21.020012 -16.092716 9.613077
20.934984 -15.926166 9.281349
20.761021 -15.845452 9.017695
20.530432 -15.776388 8.793808
20.211861 -15.700427 8.625727
19.849386 -15.571810 8.506173
19.640312 -15.324714 8.355406
19.479490 -15.007727 8.227276
19.326591 -14.640658 8.140477
19.185825 -14.272868 8.060498
19.044325 -13.914143 7.989057
18.917990 -13.559216 7.918782
18.814465 -13.205784 7.845939
18.726824 -12.855630 7.773354
18.640093 -12.512409 7.707594
18.555769 -12.175138 7.647763
18.478188 -11.842160 7.591647
18.409388 -11.512614 7.538104
18.355042 -11.184816 7.484280
18.292622 -10.863367 7.440235
18.234343 -10.544950 7.400143
18.133623 -10.238479 7.384989
18.049055 -9.931056 7.367772
17.999380 -9.618984 7.339742
17.977283 -9.303701 7.304005
17.906128 -8.998670 7.295114
17.845253 -8.692406 7.285847
17.777138 -8.387427 7.283868
17.718279 -8.080549 7.281480
17.654718 -7.773582 7.284715
17.594801 -7.464745 7.289560
17.547422 -7.152356 7.291775
17.492304 -6.838955 7.300218
17.431505 -6.523773 7.313713
17.370630 -6.205578 7.329488
17.311354 -5.883666 7.346556
17.218559 -5.562476 7.380464
17.138388 -5.235239 7.410279
17.075686 -4.900965 7.433566
17.054592 -4.556066 7.439099
17.035908 -4.205320 7.444236
16.994816 -3.851647 7.460050
16.947968 -3.492382 7.478774
16.862835 -3.131622 7.515318
16.819006 -2.757972 7.532590
16.763351 -2.378351 7.554968
16.653559 -1.998605 7.602633
16.556107 -1.608816 7.644060
16.608994 -1.187639 7.610679
16.605070 -0.784768 7.613940
16.563929 -0.406068 7.651495
16.605829 -0.034389 7.661358
16.599215 0.316500 7.707260
16.650139 0.659767 7.734964
16.722174 0.993137 7.760407
16.780664 1.316101 7.799436
16.835140 1.631796 7.846063
16.899456 1.943305 7.891599
16.970951 2.252512 7.935882
17.045687 2.561194 7.979677
17.093328 2.868819 8.039982
17.120205 3.177048 8.113139
17.114935 3.485723 8.206358
17.096256 3.797442 8.307471
17.067383 4.113744 8.413420
17.029032 4.436007 8.522492
16.974369 4.764781 8.638149
16.901501 5.101062 8.760445
16.836948 5.451122 8.868404
16.760679 5.813688 8.974521
16.675764 6.191298 9.074553
16.597555 6.586163 9.155347
16.491777 6.963587 9.246549
16.422047 7.331952 9.300170
16.366917 7.689087 9.333193
16.319096 8.035492 9.352059
16.284023 8.374646 9.353478
16.255678 8.707071 9.343082
16.228279 9.033135 9.326213
16.215700 9.358434 9.293128
16.197161 9.678941 9.260458
16.137253 9.985996 9.255568
16.067293 10.289882 9.255241
15.973351 10.588210 9.270634
15.874071 10.888112 9.288410
15.774090 11.192760 9.305880
15.674225 11.504261 9.323180
15.570646 11.823339 9.344129
15.459604 12.150821 9.372689
15.347652 12.490450 9.404872
15.243831 12.846437 9.434306
15.144942 13.219627 9.464272
15.031891 13.606714 9.512756
14.918927 13.992207 9.570542
14.834881 14.366844 9.611369
14.745274 14.724340 9.668073
14.675632 15.072021 9.714002
14.625974 15.411320 9.745531
14.584458 15.741501 9.773301
14.557375 16.065802 9.785492
14.543526 16.386265 9.777554
14.533430 16.703476 9.757682
14.514777 17.016991 9.743567
14.481293 17.326967 9.748519
14.426085 17.632195 9.794043
14.358589 17.935936 9.867371
14.293859 18.245510 9.927701
14.225082 18.561117 9.987014
14.153243 18.886469 10.032046
14.077032 19.225060 10.050432
13.987688 19.574654 10.070296
13.887274 19.940868 10.061761
13.771978 20.325109 10.024226
13.642086 20.718658 9.975093
13.511778 21.090513 9.969159
13.381519 21.430378 10.068281
13.254070 21.753536 10.168361
13.126920 22.061821 10.268044
12.997942 22.359331 10.353581
12.865283 22.650164 10.413737
12.727066 22.934971 10.456749
12.582202 23.217447 10.473735
12.429021 23.496908 10.478151
12.265248 23.771917 10.485330
12.086362 24.037205 10.526971
11.889382 24.295057 10.597166
11.675104 24.554846 10.658777
11.442637 24.819597 10.705837
11.190523 25.090891 10.739079
10.923095 25.378828 10.723658
10.636628 25.665649 10.703502
10.344774 25.899534 10.693347
10.042784 26.076445 10.710147
9.735276 26.211058 10.728092
9.426929 26.316097 10.729588
9.116700 26.398893 10.719376
8.804821 26.469118 10.692676
8.487952 26.533506 10.654939
8.163486 26.601376 10.601212
7.825398 26.678621 10.541513
7.468426 26.771749 10.486448
7.088912 26.895170 10.424332
6.704182 27.040806 10.373575
6.339486 27.185183 10.348030
5.993059 27.324209 10.350923
5.663449 27.451492 10.388403
5.348682 27.563776 10.457792
5.046292 27.658272 10.556054
4.749569 27.753750 10.641587
4.455257 27.846817 10.718910
4.162411 27.923689 10.809883
3.868983 27.976978 10.924626
3.572092 28.002060 11.070252
3.265469 28.008461 11.230223
2.941613 28.011587 11.375917
2.593801 28.028433 11.470789
2.218662 28.071323 11.480595
1.817075 28.140339 11.391088
1.414210 28.208361 11.248802
1.042220 28.247847 11.116919
0.695132 28.249605 11.027224
0.365149 28.214426 10.988680
0.047520 28.160618 10.962121
-0.261332 28.095034 10.933053
-0.565442 28.017241 10.905219
-0.866950 27.933897 10.862576
-1.170733 27.838392 10.826118
-1.480324 27.729315 10.803844
-1.797872 27.610725 10.788055
-2.126945 27.476784 10.801841
-2.468844 27.335892 10.824409
-2.826597 27.197163 10.828879
-3.204890 27.058992 10.821565
-3.576140 26.921429 10.832047
-3.918957 26.792473 10.844372
-4.240015 26.671356 10.841742
-4.545316 26.553795 10.820148
-4.838018 26.433558 10.786795
-5.122684 26.302181 10.754711
-5.402698 26.153814 10.729350
-5.682987 25.985947 10.702720
-5.967001 25.792852 10.679629
-6.255163 25.562813 10.686620
-6.555285 25.297960 10.695674
-6.846735 25.024862 10.711315
-7.114855 24.758274 10.743509
-7.367439 24.506779 10.751418
-7.605997 24.266592 10.738518
-7.829536 24.028921 10.725243
-8.037221 23.785824 10.729393
-8.236428 23.544258 10.715099
-8.430507 23.302872 10.674886
-8.621682 23.057852 10.609264
-8.809175 22.800735 10.536716
-8.996784 22.530546 10.447566
-9.181569 22.237040 10.370340
-9.366504 21.918867 10.298803
-9.558603 21.578737 10.208128
-9.742109 21.224974 10.136344
-9.915622 20.889494 10.040912
-10.072387 20.562096 9.960611
-10.219280 20.246449 9.873485
-10.360406 19.942846 9.772770
-10.496247 19.648073 9.665689
-10.623613 19.356432 9.568870
-10.744053 19.066723 9.480762
-10.863342 18.780603 9.388836
-10.976225 18.492247 9.310603
-11.074533 18.195442 9.265561
-11.155936 17.888496 9.255804
-11.224380 17.573040 9.270405
-11.280787 17.248524 9.306713
-11.338885 16.919752 9.339873
-11.400322 16.585075 9.370635
-11.467488 16.243067 9.398649
-11.538895 15.890676 9.429894
-11.629706 15.531802 9.443771
-11.738557 15.163457 9.446951
-11.857594 14.780231 9.454848
-11.989791 14.396012 9.459798
-12.129222 14.032619 9.460979
-12.286843 13.692616 9.441930
-12.432677 13.362574 9.445254
-12.583368 13.047006 9.445916
-12.734652 12.742496 9.449020
-12.886032 12.447079 9.454202
-13.037683 12.159024 9.460134
-13.190817 11.876942 9.464028
-13.343405 11.598419 9.467466
-13.497370 11.322287 9.466622
-13.650214 11.046064 9.463552
-13.783642 10.762577 9.481948
-13.885544 10.466593 9.537751
-13.970395 10.160678 9.611011
-14.052521 9.847153 9.681588
-14.129739 9.523358 9.752100
-14.203932 9.187833 9.819405
-14.288630 8.842846 9.862673
-14.383346 8.486622 9.880618
-14.501591 8.122337 9.849796
-14.628399 7.743938 9.790237
-14.755978 7.362699 9.707008
-14.864298 6.994953 9.624745
-14.968803 6.645401 9.520225
-15.059506 6.308201 9.413062
-15.135045 5.980470 9.309107
-15.199471 5.661666 9.204508
-15.242628 5.344179 9.121557
-15.267840 5.026783 9.058038
-15.292557 4.716409 8.984185
-15.310349 4.407596 8.914946
-15.320664 4.097946 8.854404
-15.327904 3.787957 8.796961
-15.326034 3.472392 8.757592
-15.319792 3.152282 8.730039
-15.310510 2.826878 8.714618
-15.301861 2.496768 8.706737
-15.300059 2.163632 8.696392
-15.307288 1.826691 8.681647
-15.326030 1.484996 8.660015
-15.364907 1.139679 8.616724
-15.418611 0.785614 8.565784
-15.488914 0.420790 8.507064
-15.577032 0.042955 8.441891
-15.672226 -0.352002 8.393364
-15.760103 -0.747642 8.362297
-15.843961 -1.135500 8.331437
-15.914723 -1.518107 8.318018
-15.992237 -1.891280 8.286704
-16.071196 -2.256856 8.248161
-16.146788 -2.616349 8.211781
-16.235323 -2.967010 8.149893
-16.296047 -3.317145 8.134183
-16.361174 -3.660852 8.109087
-16.427004 -3.999297 8.081843
-16.492285 -4.333128 8.055320
-16.555687 -4.662935 8.032385
-16.616762 -4.989151 8.014366
-16.676851 -5.311911 7.999613
-16.733997 -5.631867 7.991798
-16.790518 -5.949005 7.987657
-16.844877 -6.263911 7.990130
-16.888630 -6.578001 8.012346
-16.929171 -6.890659 8.043057
-16.962587 -7.202771 8.088297
-16.991396 -7.514439 8.144397
-17.011980 -7.826613 8.216623
-17.034489 -8.138517 8.290642
-17.069611 -8.449298 8.352195
-17.116076 -8.759540 8.404158
-17.168350 -9.070381 8.455004
-17.227562 -9.382093 8.503922
-17.296759 -9.694649 8.547634
-17.377281 -10.008162 8.585235
-17.465168 -10.323585 8.622633
-17.547462 -10.643530 8.676760
-17.649975 -10.964038 8.715506
-17.761335 -11.287333 8.753995
-17.879076 -11.614253 8.795822
-17.998846 -11.946154 8.846696
-18.126257 -12.282379 8.900227
-18.275667 -12.620018 8.939930
-18.409443 -12.968245 9.010841
-18.575806 -13.315925 9.056662
-18.754910 -13.667999 9.101441
-18.971863 -14.017656 9.117124
-19.177645 -14.352298 9.176870
-19.406202 -14.619987 9.273813
-19.678980 -14.815861 9.380544
-20.016705 -14.924372 9.468783
-20.377052 -14.946830 9.560816
-20.690386 -14.928639 9.703347
-20.964867 -14.898475 9.885003
-21.193777 -14.911482 10.129916
-21.425224 -14.961890 10.400041
-21.681847 -15.050307 10.674134
-21.987186 -15.133095 10.900623
-22.334995 -15.198760 11.062729
-22.712675 -15.262650 11.163274
-23.114689 -15.308903 11.187519
