#CW. Done reversal (Created by Banna)
27.1014 -16.5623 14.0376 0.4388 -0.6695 0.5994
27.7036 -16.1765 13.8627 0.7530 -0.5282 0.3924
28.1293 -15.7161 13.7071 0.6301 -0.6336 0.4488
28.5360 -15.2064 13.6887 0.8452 -0.3034 0.4399
28.8660 -14.6845 13.6129 0.6604 -0.5056 0.5552
29.2886 -14.0903 13.6462 0.6846 -0.5828 0.4378
29.6056 -13.5200 13.7121 0.7061 -0.3776 0.5990
29.8621 -12.8761 13.6968 0.6607 0.0414 0.7495
30.0213 -12.3268 13.4931 0.6730 0.1024 0.7325
30.1699 -11.7119 13.2456 0.6522 0.1496 0.7431
30.2894 -11.1562 13.0121 0.6818 0.1918 0.7059
30.3687 -10.5941 12.7487 0.7201 0.2760 0.6366
30.3474 -10.0159 12.4099 0.7472 0.4291 0.5075
30.1603 -9.3417 12.1740 0.6804 0.3482 0.6449
30.0519 -8.6801 11.9972 0.6065 0.2932 0.7390
29.8311 -8.1051 11.8836 0.5649 0.4241 0.7079
29.6465 -7.4545 11.5740 0.4686 0.5589 0.6842
29.4108 -6.8595 11.2620 0.4433 0.5247 0.7267
29.3700 -6.2143 10.8727 0.4642 0.4638 0.7546
29.3553 -5.6371 10.5388 0.4558 0.4425 0.7723
29.3858 -5.0033 10.2028 0.2837 0.4270 0.8586
29.4019 -4.3672 9.8562 0.2941 0.4732 0.8304
29.4498 -3.6085 9.4615 0.2336 0.3866 0.8922
29.5296 -2.9826 9.1625 0.3429 0.3782 0.8599
29.5190 -2.3829 8.9074 0.4107 0.3652 0.8355
29.6153 -1.7597 8.6207 0.4532 0.3071 0.8368
29.6944 -1.1975 8.3571 0.4852 0.3528 0.8001
29.6480 -0.5921 8.0752 0.5246 0.3962 0.7535
29.5106 -0.0129 7.8368 0.5337 0.4646 0.7066
29.2156 0.6378 7.6318 0.5091 0.4764 0.7169
28.8424 1.1326 7.5516 0.4662 0.4547 0.7589
28.4780 1.8176 7.3704 0.5014 0.4612 0.7321
28.0600 2.4065 7.2965 0.5773 0.4245 0.6975
27.5927 2.9627 7.2974 0.4829 0.4443 0.7546
27.2077 3.4593 7.2084 0.5267 0.4724 0.7067
26.8389 3.9766 7.2072 0.5319 0.3154 0.7859
26.8032 4.6171 7.0124 0.5991 0.1807 0.7800
26.8398 5.2126 6.8794 0.6170 0.1079 0.7795
26.9455 5.8122 6.7264 0.6017 0.1287 0.7883
27.0783 6.4369 6.4820 0.6045 0.2240 0.7645
27.0712 7.0513 6.2754 0.6155 0.2529 0.7465
27.0605 7.6615 6.0644 0.5919 0.2811 0.7554
27.0435 8.2644 5.8460 0.6869 0.2650 0.6767
26.9590 9.0034 5.6053 0.7395 0.2749 0.6145
26.7688 9.6330 5.4867 0.6419 0.3316 0.6914
26.4181 10.2977 5.3593 0.4891 0.5855 0.6465
26.1911 10.8789 5.0738 0.3714 0.5911 0.7160
25.8666 11.3602 4.9201 0.4096 0.5585 0.7214
25.5718 11.8694 4.6779 0.4938 0.4145 0.7645
25.0650 12.2977 4.6353 0.3668 0.5144 0.7751
24.5601 12.7281 4.5949 0.5129 0.5154 0.6865
24.0718 13.1837 4.6975 0.5041 0.2891 0.8138
23.5741 13.4961 4.9565 0.6087 0.3731 0.7002
23.0906 13.6866 5.2764 0.6324 0.3976 0.6648
22.5826 13.7799 5.5894 0.4487 0.3887 0.8047
22.0609 13.8572 5.8861 0.5091 0.4464 0.7359
21.4873 14.0885 6.1790 0.6031 0.4502 0.6585
21.0086 14.3537 6.4825 0.6599 0.4281 0.6175
20.5305 14.5504 6.8087 0.6063 0.5283 0.5944
20.1614 15.0617 6.8273 0.7362 0.4021 0.5444
19.8616 15.7036 6.5351 0.6008 0.6761 0.4266
19.6284 16.2086 6.2644 0.7679 0.4317 0.4733
19.3529 16.8092 6.0230 0.6965 0.5712 0.4343
18.9937 17.3258 5.9297 0.5488 0.5132 0.6599
18.5970 17.9437 5.8715 0.6073 0.2778 0.7443
18.1724 18.4033 6.0714 0.6627 0.3211 0.6766
17.7420 18.7240 6.4319 0.7511 0.2547 0.6091
17.3284 18.9949 6.8342 0.7428 0.1981 0.6395
16.8573 19.2058 7.2922 0.7165 0.1674 0.6772
16.4180 19.3779 7.6862 0.6427 0.2258 0.7321
16.2340 19.9641 7.6323 0.5678 0.3336 0.7525
16.0793 20.5751 7.3888 0.6608 0.4601 0.5930
15.9755 21.1322 7.0744 0.7139 0.4406 0.5443
15.9084 21.7187 6.6742 0.7433 0.4470 0.4976
15.6804 22.4204 6.2608 0.7137 0.5606 0.4200
15.2980 22.9644 6.1593 0.6675 0.6100 0.4271
14.8101 23.4388 6.1407 0.4011 0.5221 0.7527
14.2479 23.8458 6.0977 0.4159 0.5565 0.7193
13.7306 24.1719 6.1519 0.4996 0.4842 0.7183
13.1027 24.4023 6.2686 0.4194 0.5950 0.6856
12.4667 24.5947 6.5447 0.4580 0.5247 0.7176
11.9086 24.7165 6.8170 0.3567 0.7330 0.5792
11.2433 24.7605 7.1658 0.2779 0.8057 0.5230
10.6212 24.7145 7.6047 0.3678 0.6776 0.6369
9.9957 24.8082 8.0728 0.6450 0.4217 0.6373
9.4977 25.0817 8.3554 0.5268 0.5605 0.6390
8.9180 25.4013 8.4331 0.4261 0.6850 0.5909
8.3899 25.8243 8.2938 0.3626 0.8516 0.3786
7.8040 25.9583 8.4954 0.2395 0.8475 0.4737
7.1925 25.9639 8.7855 0.2164 0.8685 0.4459
6.5781 25.9540 9.0635 0.2208 0.8679 0.4449
5.9789 26.0188 9.2108 0.1512 0.8906 0.4289
5.3657 26.0110 9.3012 0.0266 0.8968 0.4416
4.5867 26.0923 9.3579 0.1416 0.8607 0.4890
3.9731 26.2356 9.2973 0.2072 0.9065 0.3680
3.3789 26.3226 9.2728 0.1030 0.6392 0.7621
2.6779 26.4874 9.1773 0.0871 0.8975 0.4323
2.0826 26.5683 9.1481 0.1368 0.9260 0.3518
1.3717 26.6855 9.2044 0.2144 0.9135 0.3457
0.7852 26.8126 9.2114 0.1823 0.9098 0.3729
0.1307 26.9045 9.2193 0.0704 0.9313 0.3574
-0.4713 26.9464 8.9702 -0.0899 0.9862 0.1392
-1.1864 26.8801 8.7737 -0.1098 0.9727 0.2046
-1.8512 26.7650 8.8888 -0.1559 0.9581 0.2402
-2.4971 26.5913 9.0382 -0.2551 0.9153 0.3117
-3.0812 26.4156 8.9682 -0.3387 0.8903 0.3043
-3.9550 26.1653 8.8738 -0.2823 0.9088 0.3073
-4.7659 25.9231 8.7569 -0.3403 0.8850 0.3178
-5.4079 25.7611 8.5372 -0.3375 0.8714 0.3561
-6.2138 25.5407 8.2482 -0.3765 0.8519 0.3639
-6.8325 25.3424 8.0803 -0.4636 0.8277 0.3162
-7.4658 25.0681 7.8526 -0.4431 0.8145 0.3745
-8.0269 24.8513 7.6415 -0.4514 0.8041 0.3870
-8.7915 24.5314 7.4352 -0.4638 0.7833 0.4139
-9.4577 24.2473 7.3088 -0.3438 0.7857 0.5142
-10.0745 24.0589 7.1485 -0.3965 0.7828 0.4797
-10.7630 23.8164 6.9744 -0.4262 0.8155 0.3916
-10.9138 23.8703 6.6994 -0.4755 0.7897 0.3877
-11.4637 23.5621 6.6227 -0.4991 0.7717 0.3943
-12.0864 23.1277 6.6186 -0.5210 0.6887 0.5042
-12.5851 22.7201 6.6454 -0.5124 0.6364 0.5766
-13.0082 22.2146 6.6921 -0.5622 0.5045 0.6553
-13.3931 21.6986 6.7209 -0.6420 0.5229 0.5607
-13.8939 20.9381 6.7366 -0.7817 0.4418 0.4403
-14.2657 20.2803 6.7256 -0.7978 0.3790 0.4690
-14.5443 19.6579 6.7599 -0.6991 0.4103 0.5857
-14.7568 19.0783 6.8521 -0.7346 0.2584 0.6273
-14.9890 18.5203 6.8094 -0.7656 0.3150 0.5609
-15.2772 17.9086 6.7761 -0.6815 0.1922 0.7062
-15.6644 17.4947 6.5342 -0.6162 0.0915 0.7822
-16.1024 16.9566 6.2825 -0.3141 0.0766 0.9463
-16.8815 16.5365 5.9742 -0.5355 0.3956 0.7462
-17.3053 16.0635 5.7327 -0.7736 0.3865 0.5021
-17.7460 15.5181 5.5544 -0.6458 0.5745 0.5029
-18.3677 15.0995 5.4055 -0.5844 0.6863 0.4331
-18.8942 14.7239 5.2290 -0.5895 0.6939 0.4135
-19.4151 14.3306 5.1940 -0.5701 0.6994 0.4310
-19.9113 14.0157 5.0201 -0.5888 0.6931 0.4158
-20.4706 13.6410 4.9310 -0.5123 0.7497 0.4189
-20.9745 13.3202 4.8328 -0.7008 0.4729 0.5340
-21.4843 12.8547 4.7758 -0.4222 0.3468 0.8376
-22.0205 12.4736 4.6758 -0.4343 0.4694 0.7688
-22.4531 12.0480 4.6717 -0.5520 0.5897 0.5896
-22.9178 11.5620 4.6657 -0.7202 0.5188 0.4606
-23.2735 10.9608 4.7361 -0.7093 0.5093 0.4874
-23.4642 10.4281 4.9793 -0.6078 0.5177 0.6021
-23.6705 9.8997 5.2298 -0.6085 0.5157 0.6032
-23.8229 9.2712 5.5824 -0.5730 0.4758 0.6673
-24.1180 8.7143 5.7134 -0.6331 0.4200 0.6503
-24.3636 8.0667 5.8765 -0.6625 0.3764 0.6476
-24.6233 7.3619 5.9573 -0.7181 0.3291 0.6133
-24.8400 6.7915 5.9794 -0.7596 0.2890 0.5827
-24.9806 6.1150 6.0933 -0.7643 0.2384 0.5992
-25.1526 5.5324 6.0945 -0.7665 0.2404 0.5956
-25.3733 4.8168 6.1570 -0.7445 0.3589 0.5629
-25.5365 4.2156 6.2983 -0.7198 0.3047 0.6237
-25.7278 3.6302 6.3807 -0.7050 0.3874 0.5941
-25.9699 3.0506 6.5589 -0.5194 0.4343 0.7359
-26.2827 2.4295 6.6814 -0.6155 0.4027 0.6775
-26.7141 1.8410 6.8594 -0.3885 0.6573 0.6458
-27.0746 1.2860 7.1652 -0.4443 0.5103 0.7363
-27.3984 0.7208 7.4539 -0.4582 0.6168 0.6400
-27.6961 0.1484 7.7304 -0.5357 0.4837 0.6921
-27.8731 -0.3880 7.9671 -0.5553 0.5130 0.6546
-27.9798 -0.8909 8.3321 -0.5393 0.5939 0.5970
-27.9428 -1.3722 8.7186 -0.5279 0.4292 0.7329
-27.7969 -1.8997 9.1985 -0.5191 0.4967 0.6956
-27.8761 -2.4101 9.5505 -0.5167 0.5241 0.6770
-27.8649 -2.9535 9.9324 -0.5477 0.4103 0.7291
-27.7205 -3.4725 10.3408 -0.4309 0.5165 0.7400
-27.6363 -3.9668 10.7053 -0.3962 0.4489 0.8010
-27.6117 -4.5830 11.0640 -0.4025 0.4398 0.8029
-27.5916 -5.1207 11.3695 -0.4382 0.4696 0.7664
-27.5816 -5.6556 11.6798 -0.4890 0.4202 0.7644
-27.6733 -6.2927 11.9319 -0.5183 0.3021 0.8001
-27.6852 -6.9057 12.1583 -0.4511 0.3644 0.8147
-27.9239 -7.5977 12.3769 -0.5493 0.4103 0.7280
-28.0664 -8.3210 12.6904 -0.5746 0.4111 0.7077
-28.1347 -9.0416 13.0122 -0.5830 0.3486 0.7339
-28.3289 -9.8984 13.1099 -0.5335 0.1384 0.8344
-28.2584 -10.5208 13.2216 -0.3528 0.0891 0.9314
-28.1239 -11.1477 13.3570 -0.1619 0.2356 0.9583
-28.0874 -11.7288 13.5380 -0.0029 0.2714 0.9625
-27.8655 -12.4587 13.7639 -0.2360 0.1641 0.9578
-27.5253 -12.9584 13.9845 -0.2751 0.2098 0.9382
-27.2272 -13.4224 14.2869 -0.6641 -0.0699 0.7444
-26.9002 -13.9653 14.7859 -0.9408 -0.1492 0.3043
-26.6808 -14.2886 15.2606 -0.9213 -0.1822 0.3435
-26.3276 -14.7476 15.7379 -0.8316 -0.3563 0.4259
-25.7962 -15.1145 16.2041 -0.6244 -0.4999 0.6002
-25.1941 -15.2510 16.4787 -0.3667 -0.6051 0.7067
-24.5694 -15.4528 16.5632 -0.1512 -0.7474 0.6470
-23.9565 -15.4824 16.5809 0.1606 -0.8058 0.5700
-23.2932 -15.4267 16.4019 0.2548 -0.7390 0.6236
-22.6339 -15.3085 16.2469 0.1879 -0.6702 0.7180
-21.9586 -15.1790 16.0678 0.3496 -0.1263 0.9283
-21.1486 -15.1190 15.9077 0.1141 -0.1812 0.9768
-20.5254 -15.0263 15.8072 0.1913 -0.2203 0.9565
-19.8666 -15.0889 15.7377 0.0241 -0.2360 0.9714
-19.2861 -14.9767 15.5816 0.6148 0.0432 0.7875
-18.9617 -14.6592 15.2507 0.6923 -0.0625 0.7189
-18.6858 -14.4473 14.7478 0.9189 -0.1778 0.3522
-18.5516 -14.2164 14.1407 0.9709 -0.2383 0.0244
-18.5090 -14.0008 13.5449 0.9662 -0.2513 -0.0582
-18.5845 -13.7694 12.8622 0.8846 -0.3272 -0.3323
-18.7554 -13.5804 12.2662 0.8528 -0.3423 -0.3945
-18.9635 -13.2971 11.5925 0.8273 -0.3693 -0.4232
-19.1145 -13.1108 11.0112 0.8455 -0.4877 0.2175
-18.7640 -12.7854 10.6189 0.6777 -0.3159 0.6640
-18.5049 -12.3518 10.2937 0.9578 -0.2725 0.0915
-18.3648 -11.7446 10.0433 0.9809 -0.1576 0.1141
-18.2488 -11.1342 9.7752 0.9929 -0.0861 0.0818
-18.1717 -10.5462 9.5570 0.9791 -0.1156 0.1670
-18.0407 -9.7866 9.2773 0.9830 -0.1213 0.1380
-17.9274 -9.0864 8.9568 0.9780 -0.1519 0.1432
-17.8151 -8.5031 8.7644 0.9882 -0.1424 0.0568
-17.7188 -7.8624 8.4034 0.9893 -0.0808 0.1218
-17.6904 -7.2338 8.2556 0.9632 0.0559 0.2628
-17.6163 -6.6795 7.9289 0.9073 0.0908 0.4106
-17.5416 -6.0635 7.6304 0.8854 0.0741 0.4589
-17.4749 -5.4124 7.4324 0.8898 0.0507 0.4536
-17.3952 -4.8247 7.2161 0.8819 0.0398 0.4697
-17.2690 -4.2157 6.9555 0.8772 -0.0256 0.4795
-17.1401 -3.5729 6.8031 0.8713 -0.1051 0.4794
-16.9716 -2.9354 6.6799 0.8469 -0.1643 0.5057
-16.8081 -2.3249 6.6315 0.8529 -0.2514 0.4576
-16.5499 -1.6995 6.5741 0.8138 -0.3228 0.4833
-16.2808 -1.0414 6.6311 0.7540 -0.3675 0.5445
-15.9997 -0.5085 6.6411 0.8852 -0.1867 0.4261
-15.8757 0.1690 6.5916 0.9488 -0.2154 0.2311
-15.6475 0.7708 6.5905 0.7522 -0.4557 0.4759
-15.3134 1.4202 6.6953 0.5446 -0.3376 0.7678
-14.9747 1.9730 6.6692 0.5130 -0.2056 0.8334
-14.6174 2.5510 6.5784 0.3624 -0.2584 0.8955
-14.3120 3.0807 6.6062 0.6106 -0.5401 0.5792
-13.9511 3.6582 6.5179 0.8065 -0.3387 0.4846
-13.5953 4.1811 6.5827 0.9248 -0.3158 0.2124
-13.3553 4.7472 6.4842 0.7356 -0.5193 0.4350
-13.1161 5.3199 6.5697 0.8904 -0.2201 0.3984
-12.8459 5.9096 6.4149 0.8562 -0.2514 0.4513
-12.6428 6.6106 6.5297 0.8341 -0.2099 0.5101
-12.4649 7.3150 6.6261 0.8432 -0.3434 0.4136
-12.2854 7.9298 6.7740 0.7763 -0.3849 0.4992
-12.0757 8.5405 6.9442 0.5084 -0.4782 0.7161
-11.8552 9.0604 7.1728 0.5626 -0.5467 0.6202
-11.4091 9.4817 7.3544 0.6474 -0.6144 0.4509
-11.2064 10.0869 7.3348 0.7632 0.0224 0.6458
-10.9981 10.7190 7.2408 0.8332 -0.2847 0.4741
-10.6960 11.2492 7.2662 0.7936 -0.5910 0.1443
-10.3183 11.7691 7.3471 0.8702 -0.4428 -0.2159
-10.0257 12.3005 7.3655 0.8806 -0.4501 -0.1484
-9.8128 12.8702 7.2470 0.9493 -0.2928 0.1147
-9.3879 13.3497 7.2562 0.4320 -0.5796 0.6910
-8.8661 13.8162 7.3367 0.6425 -0.5097 0.5721
-8.5300 14.4035 7.4150 0.7317 -0.4477 0.5139
-8.2153 14.9319 7.4497 0.5926 -0.3259 0.7366
-7.8690 15.5179 7.5355 0.2414 -0.1817 0.9533
-7.4077 15.9031 7.6219 0.1608 -0.4880 0.8579
-6.9528 16.3509 7.7316 0.4205 -0.4741 0.7735
-6.5000 16.7990 7.8398 0.5556 -0.6137 0.5610
-6.0452 17.2468 7.9494 0.3746 -0.7012 0.6066
-5.4816 17.5842 8.0047 0.3494 -0.7924 0.5000
-4.9057 17.9816 8.0969 0.3753 -0.4644 0.8022
-4.3614 18.2257 8.0039 0.2420 -0.4667 0.8506
-3.6013 18.5302 8.0187 0.0857 -0.6820 0.7263
-3.0143 18.6238 8.1642 -0.3658 -0.2634 0.8927
-2.2361 18.7470 8.2934 0.0562 -0.5493 0.8337
-1.5405 18.9090 8.2834 0.2333 -0.6316 0.7394
-0.9225 19.0814 8.2165 0.2133 -0.6861 0.6956
-0.0650 19.2152 8.1408 0.0852 -0.6477 0.7571
0.7696 19.3244 8.1266 0.1360 -0.6511 0.7467
1.4731 19.4236 8.0946 0.1627 -0.4695 0.8678
2.1423 19.5274 8.0373 0.1176 -0.5595 0.8205
2.7874 19.6067 8.0407 -0.0312 -0.5978 0.8010
3.4461 19.6566 8.1326 -0.0776 -0.5352 0.8412
3.9853 19.5368 8.2026 -0.2283 -0.4108 0.8827
4.5918 19.2873 8.1273 0.1424 -0.4538 0.8797
5.2191 19.2021 8.0095 0.0804 -0.4626 0.8829
5.9075 19.0434 7.9162 -0.0002 -0.5509 0.8346
6.5647 18.9232 7.9001 -0.1034 -0.7350 0.6702
7.1310 18.6314 7.9201 -0.4622 -0.5046 0.7292
7.6567 18.3680 8.0399 -0.2886 -0.5896 0.7543
8.2216 18.1458 8.0668 -0.2257 -0.6233 0.7488
8.8597 17.9343 8.0926 -0.1512 -0.5747 0.8042
9.5888 17.5386 8.0644 -0.2712 -0.4701 0.8399
10.0840 16.9541 8.0662 -0.4567 -0.3330 0.8249
10.5648 16.3499 7.9259 -0.5370 -0.6863 0.4905
10.8265 15.8523 7.6184 -0.5678 -0.5745 0.5895
11.2562 15.3366 7.6063 -0.6873 -0.4801 0.5451
11.5632 14.7535 7.5366 -0.5914 -0.4490 0.6698
11.7930 14.2223 7.3048 -0.4486 -0.5072 0.7359
12.0364 13.7055 7.0407 -0.4620 -0.6151 0.6390
12.3458 13.1916 6.7927 -0.5187 -0.6247 0.5837
12.5278 12.6768 6.5013 -0.5447 -0.4846 0.6844
12.9501 12.1531 6.5070 -0.6239 -0.4665 0.6270
13.3519 11.6790 6.5649 -0.7202 -0.4493 0.5286
13.7731 11.1543 6.5729 -0.7395 -0.6073 0.2904
14.1817 10.6873 6.6147 -0.7463 -0.5703 0.3431
14.5289 10.1513 6.6256 -0.8172 -0.4520 0.3577
14.8348 9.4293 6.7278 -0.9144 -0.2488 0.3195
15.0685 8.9159 7.0152 -0.9102 -0.2469 0.3325
15.3007 8.3251 7.1266 -0.7842 -0.2943 0.5463
15.5426 7.6691 7.0349 -0.5369 -0.2705 0.7991
15.8339 7.0695 7.0025 -0.5194 -0.3036 0.7988
16.0312 6.3619 6.8406 -0.5558 -0.3286 0.7636
16.2459 5.7438 6.6409 -0.7869 -0.4297 0.4429
16.5578 5.1659 6.5595 -0.7572 -0.4956 0.4255
16.8047 4.6527 6.2872 -0.7014 -0.6099 0.3689
17.1900 4.1568 6.2078 -0.6420 -0.5919 0.4874
17.5575 3.5664 5.9909 -0.6121 -0.6336 0.4732
17.8829 3.0694 5.7049 -0.5346 -0.7287 0.4281
18.2125 2.6909 5.6576 -0.7206 -0.2527 0.6456
18.4695 2.0495 5.5315 -0.7652 -0.5138 0.3880
18.7906 1.5026 5.5571 -0.8803 -0.3912 0.2685
18.8681 0.9015 5.7126 -0.9917 0.1139 -0.0593
18.8915 0.2203 5.9965 -0.8993 -0.1396 0.4145
19.0458 -0.6210 6.2075 -0.9930 -0.0628 0.1001
19.1322 -1.2413 6.2541 -0.9965 -0.0157 -0.0824
19.1233 -1.8400 6.2086 -0.9979 0.0438 -0.0476
19.1437 -2.5053 6.3085 -0.8578 0.0991 0.5043
19.1716 -3.0715 6.5214 -0.9750 0.0613 0.2134
19.1978 -3.6642 6.6338 -0.7925 0.1513 0.5907
19.2754 -4.3771 6.8567 -0.8403 0.0647 0.5382
19.3537 -4.9776 7.0115 -0.8264 0.0249 0.5625
19.4918 -5.5806 7.2025 -0.8653 -0.0492 0.4989
19.6522 -6.1431 7.4772 -0.9645 -0.1320 0.2286
19.8230 -6.7164 7.9299 -0.9801 -0.1563 0.1223
20.0236 -7.4500 8.4086 -0.9752 -0.1505 0.1622
20.1273 -7.9825 8.7464 -0.9940 -0.0996 0.0450
20.1827 -8.4792 9.1406 -0.9940 -0.0776 0.0770
20.2471 -8.9698 9.5274 -0.9955 -0.0507 0.0806
20.3256 -9.6134 9.7667 -0.9785 -0.1183 0.1691
20.4302 -10.2213 9.7984 -0.7296 -0.2043 0.6526
20.5806 -10.8667 9.7759 -0.8162 -0.2478 0.5219
20.6228 -11.4992 9.6718 -0.9199 -0.0813 0.3835
20.6444 -12.1204 9.6863 -0.9253 0.0252 0.3784
20.5994 -12.8990 9.8221 -0.9089 0.1684 0.3815
20.5685 -13.4366 10.0997 -0.8218 0.3184 0.4725
20.7279 -13.9743 10.4770 -0.7925 0.0761 0.6051
21.0005 -14.3843 10.9661 -0.8174 0.1957 0.5418
21.1979 -14.8021 11.4315 -0.9169 -0.0588 0.3947
21.2865 -15.3194 11.8833 -0.8197 0.3596 0.4458
21.5781 -15.7164 12.3570 -0.7250 -0.1868 0.6629
22.0944 -16.0034 12.7332 -0.5787 -0.2498 0.7764
22.5958 -16.1887 13.0541 -0.6400 -0.2908 0.7112
23.0315 -16.4187 13.4282 -0.7372 -0.2314 0.6349
23.5076 -16.5525 13.7868 -0.3547 -0.8274 0.4354
24.1235 -16.5910 14.0320 -0.2962 -0.8041 0.5154
24.7350 -16.7012 14.2637 -0.3188 -0.7741 0.5470
25.0632 -16.7664 14.2909 -0.0412 -0.6984 0.7146
25.7708 -16.8446 14.2921 -0.1107 -0.6931 0.7123
